ncols        400
nrows        57
xllcorner    -156.003330000000
yllcorner    58.996670000000
dx           0.032516650000
dy           0.020022200000
NODATA_value -32768
46 57 123 188 162 294 128 71 75 187 158 295 277 146 357 376 195 198 176 173 101 160 120 143 121 100 103 114 102 64 60 105 108 76 86 111 127 138 142 120 126 133 117 89 65 62 65 61 64 66 69 73 132 179 204 183 154 149 155 173 185 158 131 85 91 120 186 122 201 200 130 149 144 229 265 240 303 199 194 188 179 132 189 151 195 278 507 504 311 224 291 235 218 211 182 289 276 263 242 240 256 238 250 230 260 209 224 208 190 180 176 177 256 464 404 258 342 567 552 470 403 331 271 247 217 168 155 140 140 152 143 169 169 125 101 168 264 286 242 233 215 194 205 230 234 195 236 177 190 226 239 241 265 224 254 193 252 228 209 233 287 260 259 220 290 223 239 269 202 198 178 166 183 182 162 157 122 153 125 102 99 99 99 102 104 105 105 112 117 116 122 119 124 130 133 133 141 132 129 132 136 138 134 127 135 124 125 125 116 108 102 107 120 389 266 265 159 162 201 228 111 112 113 113 115 116 115 115 120 121 119 119 122 123 123 125 127 128 130 130 134 132 134 134 135 136 137 139 141 141 143 145 149 148 147 148 152 153 154 157 158 160 160 162 164 164 165 167 167 169 170 169 171 175 175 174 174 183 185 193 259 356 317 284 269 470 542 383 529 734 698 425 602 406 367 567 490 299 513 505 452 338 298 286 285 280 282 282 292 343 343 356 482 729 757 761 787 1006 773 806 851 692 755 675 387 576 770 874 921 734 716 471 523 723 568 613 887 946 685 813 674 1055 1123 1010 1209 1282 1541 1517 1079 1049 1081 1048 1135 982 1065 947 982 1087 1242 1303 1363 1025 1028 1322 1465 1495 1266 1282 1194 1144 1001 1104 1136 1317 1020 957 888 1155 1229 1315 1028 1156 1028 995 930 949 990 1345 1195 1162 1242 1234 1150 1132 1207 1048 1035 1132 1307 1155
50 84 163 202 318 214 72 84 162 215 286 372 252 300 457 324 211 134 139 103 103 97 85 84 83 81 80 93 97 117 119 101 100 67 84 121 135 120 115 130 147 125 130 90 66 65 64 66 64 64 63 116 171 167 109 155 153 169 204 290 303 81 87 109 107 150 223 165 183 339 194 161 334 249 383 317 341 193 109 179 211 289 445 314 245 422 293 250 242 200 215 160 195 201 207 217 233 225 244 260 262 284 232 189 290 242 266 214 189 182 167 245 423 726 539 288 372 544 509 368 333 431 450 339 278 288 240 214 195 177 170 142 145 108 128 157 260 276 253 235 241 245 255 237 223 203 229 174 218 244 245 258 253 191 208 245 244 247 211 248 289 234 291 234 267 296 223 266 170 197 212 165 170 177 173 164 119 117 117 102 100 102 102 119 122 117 120 124 119 121 123 127 131 150 133 138 157 144 137 139 136 118 129 131 131 130 115 120 109 108 111 107 347 248 166 139 112 148 263 111 113 112 115 113 109 118 115 114 115 118 120 124 125 126 127 134 130 130 133 133 135 137 137 137 138 138 140 139 144 145 146 148 149 154 154 150 154 154 157 159 160 162 163 164 166 167 167 169 169 170 173 173 173 173 176 175 176 191 214 226 206 221 302 463 536 568 436 506 423 653 526 364 397 319 324 302 305 282 465 588 419 275 267 267 274 409 482 349 369 427 463 442 383 565 473 581 564 679 842 945 657 986 588 722 626 646 484 419 709 1074 895 667 956 1150 923 933 750 680 767 978 1014 1203 937 1285 1219 1419 1592 1540 1422 1156 991 1024 1231 1319 1207 1146 1149 986 964 1200 944 866 936 1060 1106 1061 884 1143 1291 1436 1356 1289 1117 1369 1277 1212 920 1059 1281 1198 1358 1181 1105 953 1087 903 903 912 1023 1041 996 1049 1050 981 1003 1113 1268 1244 1163 1215
73 86 93 153 332 180 69 84 100 148 173 338 276 444 323 276 164 146 139 145 184 106 102 95 84 79 76 75 82 101 101 94 83 76 113 117 143 109 116 113 124 122 129 101 75 72 68 65 63 65 65 103 142 124 131 137 123 145 127 221 107 84 102 125 107 126 157 275 217 336 195 196 308 425 251 249 139 114 122 188 294 455 415 260 221 326 277 226 228 240 232 146 214 217 247 228 222 223 252 278 314 282 225 279 286 274 217 213 190 180 179 263 560 710 446 339 464 825 505 394 336 482 358 261 261 214 203 191 177 140 123 121 117 126 120 166 255 258 235 253 273 256 231 247 241 216 227 192 244 243 256 276 243 277 226 228 218 261 283 237 280 249 295 240 277 304 254 247 190 214 222 178 196 178 173 161 152 122 103 101 101 104 103 127 126 124 123 121 125 125 130 138 142 157 145 157 148 147 143 142 136 130 140 124 113 120 111 108 108 112 111 109 317 209 175 152 111 108 113 113 114 109 116 110 114 114 115 116 118 119 121 124 128 126 129 130 132 133 134 138 137 139 139 138 139 141 142 142 144 146 148 147 149 154 154 152 154 156 158 160 161 162 163 167 167 168 169 172 171 172 174 174 174 175 178 178 178 245 253 224 218 225 284 416 485 409 426 605 335 443 404 524 372 348 576 377 347 274 491 608 261 265 266 269 279 291 380 552 538 632 577 560 712 503 700 826 732 843 896 1001 788 1079 875 1013 731 462 709 711 436 851 1053 1065 1014 824 728 675 926 884 962 1000 1172 1171 1324 1234 1352 1173 1198 1066 1347 1261 942 1077 1007 929 1219 1056 1078 1001 840 1057 803 752 824 913 920 1034 1262 1215 1215 1449 1364 1080 1188 1318 1094 996 1064 1234 1313 1337 1213 1028 947 995 1089 951 954 960 922 943 987 1012 982 993 1148 1222 1182 1116 1257 1245
92 156 113 129 203 180 90 91 124 257 340 272 241 346 369 257 247 146 306 202 126 243 162 143 126 119 128 119 85 79 80 99 119 134 137 137 114 104 110 137 113 126 88 81 66 63 81 98 69 67 67 132 140 74 78 135 162 144 110 80 77 110 109 127 164 334 137 213 316 254 426 364 400 391 190 148 104 168 232 240 305 411 334 300 286 310 260 251 193 169 142 218 223 258 260 256 236 269 376 323 426 482 279 292 321 251 222 208 187 201 303 326 583 483 376 694 756 607 498 360 455 357 425 530 246 173 156 128 118 117 153 132 175 182 112 157 180 240 274 414 322 253 260 262 236 191 189 216 244 246 282 242 282 265 258 258 253 223 280 287 271 271 293 261 289 290 291 198 190 219 222 187 198 205 183 151 111 109 106 105 105 104 103 131 134 138 129 139 145 138 142 157 160 152 144 152 146 137 146 134 141 124 127 118 112 112 113 112 113 110 126 110 111 109 112 111 112 111 110 111 113 112 113 117 117 118 122 121 120 121 123 126 129 132 134 132 136 136 138 139 141 142 142 142 143 146 146 146 147 149 152 151 154 152 156 156 157 159 161 163 165 166 168 169 171 173 172 177 175 175 175 177 178 181 179 182 180 203 281 237 229 267 289 407 474 401 339 320 288 427 470 508 389 582 490 448 455 375 414 256 261 429 438 378 359 301 305 340 386 637 656 790 782 704 708 764 825 1249 1026 804 851 943 795 637 763 434 829 885 762 628 755 810 812 689 643 795 652 915 964 861 787 948 1067 1438 1271 1227 1201 824 1133 970 1170 712 779 932 877 938 1034 749 701 919 685 813 949 1020 945 753 944 1168 1492 1278 1497 1122 1264 1137 1092 1154 1299 1393 1394 1310 1315 992 1319 1186 1045 1288 1117 1018 1053 1141 964 999 1008 975 1005 1025 1094 1146 1129 1110
185 235 186 142 117 107 129 156 158 219 125 141 228 356 398 227 382 223 364 274 302 255 170 144 137 118 119 110 125 132 113 135 141 111 121 129 147 114 112 121 141 119 107 68 58 114 114 107 67 64 69 66 69 67 69 113 176 79 75 93 106 148 224 318 166 302 248 276 328 389 432 424 287 231 152 94 175 248 331 293 268 190 335 376 252 279 215 224 126 194 209 284 289 259 248 233 292 393 298 425 358 273 304 289 264 241 213 196 213 366 469 434 539 373 414 541 663 440 523 330 354 362 254 164 174 283 238 205 188 184 164 124 204 154 195 277 308 299 343 287 229 218 243 196 255 250 201 259 225 245 291 243 282 286 262 269 264 277 303 309 276 303 290 266 286 331 222 207 232 251 202 163 188 191 162 124 110 108 105 108 104 105 105 134 143 150 137 124 159 160 161 172 158 153 172 144 155 155 141 132 131 126 119 115 115 114 114 113 114 114 111 112 110 113 112 110 111 113 114 116 116 117 118 119 122 121 122 126 126 127 129 129 133 137 136 135 137 139 140 144 144 145 147 148 145 146 150 149 152 153 154 155 157 157 157 160 163 161 162 165 167 169 171 173 174 177 177 177 179 179 179 179 183 182 183 184 307 251 223 223 232 245 251 328 256 243 253 309 419 393 436 471 539 432 360 280 259 247 253 255 274 302 363 500 459 376 380 327 350 368 389 433 618 594 907 892 1173 944 940 927 787 664 647 606 615 452 877 828 786 686 562 768 531 741 705 749 857 864 695 724 617 661 970 1186 1107 1197 1256 850 961 1131 735 894 713 651 653 690 855 853 657 695 900 857 810 942 1104 1037 758 942 1075 1278 1350 1286 882 1157 1388 1306 1138 1302 1375 1289 1177 1028 1222 1103 1201 1075 1130 1169 1069 996 986 1031 997 1069 1010 1134 1212 1252 1422 1238
170 180 188 182 185 190 362 201 177 135 249 190 317 332 349 379 483 397 410 332 256 178 132 119 111 120 123 103 112 103 109 116 114 118 106 114 123 113 119 92 105 93 68 64 91 114 145 115 70 76 66 69 67 68 63 176 143 75 75 103 110 133 147 215 351 258 352 411 583 442 273 204 153 127 87 172 362 243 174 171 150 229 194 130 105 192 113 152 223 225 319 327 293 244 241 322 381 437 547 383 283 342 320 455 255 284 203 269 264 382 338 417 344 380 381 479 361 361 346 281 214 206 264 491 312 239 295 245 222 185 206 208 173 129 181 254 277 327 292 280 251 233 230 283 265 200 266 279 291 264 297 244 269 300 282 287 223 270 300 296 271 314 313 316 347 289 222 259 260 221 186 163 177 159 126 110 109 108 106 107 107 106 105 167 141 128 154 159 163 157 149 145 159 165 158 149 155 139 141 129 125 121 120 118 119 117 116 118 118 119 115 115 114 115 117 115 116 117 120 120 123 122 123 125 126 125 129 130 133 131 131 134 136 138 139 142 142 142 145 144 148 152 151 152 156 154 154 157 156 157 159 159 162 162 162 163 165 165 167 168 170 172 173 175 178 180 180 182 183 183 183 185 183 184 187 186 185 194 200 211 210 221 243 244 272 399 497 439 409 358 301 547 473 269 237 239 245 249 273 307 297 366 565 669 472 617 401 496 404 402 587 719 664 948 764 688 840 1039 859 769 636 789 851 592 472 638 532 799 1008 684 914 608 599 642 767 902 771 635 657 505 555 802 714 789 970 723 990 810 913 841 802 555 768 803 651 621 699 809 620 658 747 799 808 862 733 674 659 695 879 907 814 978 801 1007 1053 1024 1163 1287 1426 1411 1112 1174 1223 1060 1008 1019 1014 1107 1075 1062 1024 1024 1042 1080 1044 1066 1162 1251 1077 962
386 201 226 246 411 375 394 186 129 129 141 163 224 346 252 421 264 229 243 262 230 142 119 119 122 107 95 86 89 83 72 84 105 110 101 107 91 69 84 66 66 60 77 105 107 115 149 111 106 104 99 77 70 74 72 78 71 73 94 153 191 234 210 261 279 430 444 347 330 323 381 219 143 95 262 107 87 94 98 94 97 100 152 173 169 165 143 193 290 248 335 327 286 163 271 374 301 308 462 402 369 511 393 303 436 276 245 214 357 370 254 291 339 378 399 354 291 280 257 220 297 332 409 416 304 393 321 273 237 234 196 182 141 205 257 355 313 271 259 227 224 266 287 268 259 228 267 282 280 320 293 289 280 311 328 240 296 263 274 293 307 335 303 286 278 274 224 240 233 222 166 166 159 113 110 107 110 111 110 108 108 151 154 147 151 157 155 141 150 154 163 147 163 164 160 159 143 141 135 127 125 125 123 122 122 123 121 122 119 118 120 116 117 119 120 121 122 123 123 123 126 128 132 129 130 133 134 135 135 138 138 138 141 143 141 143 145 149 148 149 152 153 155 157 161 162 162 162 162 163 167 171 166 168 168 168 171 170 170 170 170 173 176 180 181 183 184 186 187 188 188 189 188 188 189 190 190 191 199 246 259 334 383 432 299 376 350 349 350 491 226 229 232 237 256 248 252 265 352 289 364 423 468 622 820 787 571 655 542 413 646 586 603 677 930 1057 1068 1101 1035 1056 832 891 739 741 600 693 911 751 850 770 636 608 624 828 895 1020 959 728 618 596 745 570 584 478 754 594 679 783 752 573 559 534 574 510 591 550 606 721 691 618 762 828 682 725 733 721 796 908 856 973 740 741 760 821 841 1010 972 903 1103 1289 1212 999 1113 1035 954 906 955 1093 1158 1138 1087 1107 1038 1099 1039 1031 1055 1117 1047 999
285 380 274 507 496 328 233 164 155 208 210 347 298 286 263 388 270 171 137 302 169 119 126 101 94 95 101 122 130 133 118 94 95 108 102 81 64 123 97 102 127 91 120 109 96 132 104 121 149 125 141 93 88 74 71 68 77 75 130 136 171 293 392 399 282 252 364 286 623 393 276 152 78 85 93 139 182 137 109 106 110 127 158 202 300 240 177 125 138 138 140 155 161 257 315 400 580 388 562 381 575 435 411 416 357 274 239 229 271 222 329 320 352 543 467 334 289 243 251 269 352 345 463 768 688 366 351 455 285 234 217 183 152 215 382 343 488 307 257 344 278 306 307 275 209 274 293 275 308 288 337 281 311 321 308 282 322 265 281 296 402 308 291 283 247 227 237 215 215 175 177 137 113 113 111 115 111 110 109 118 168 160 170 167 172 156 155 174 151 157 161 167 165 163 156 152 134 131 129 128 129 128 126 126 126 120 124 123 122 124 121 119 122 121 123 122 125 129 128 128 130 132 134 133 134 136 138 140 141 142 142 143 145 146 146 147 149 151 155 153 155 160 161 169 165 167 167 167 169 169 172 175 173 178 176 176 178 176 174 172 173 175 179 181 185 188 189 189 192 193 194 193 193 193 193 193 194 242 202 315 205 203 206 209 375 239 219 219 227 231 234 256 259 272 298 314 287 261 274 287 342 494 445 466 551 678 644 526 603 465 484 657 694 958 1028 964 922 805 999 843 695 761 626 518 736 839 773 655 696 647 493 494 600 805 922 930 863 759 541 486 425 450 667 437 478 552 545 514 496 530 617 561 763 702 849 780 586 570 549 550 561 650 654 744 848 838 927 980 974 850 865 902 961 1051 1098 1083 1268 1141 1288 1222 1290 1359 1347 907 1073 1023 841 896 1021 1043 1106 1041 1199 1184 1196 1093 1090 1136 1033 907
417 443 395 518 375 295 229 207 343 290 274 312 373 361 206 334 288 177 137 124 101 95 117 135 117 102 107 97 107 107 145 146 121 112 111 89 72 68 132 139 191 178 142 146 131 147 137 147 143 155 156 161 134 109 98 72 73 73 207 245 245 271 303 139 312 235 262 179 235 121 76 79 87 91 345 233 237 246 191 137 165 262 241 260 198 174 234 227 241 162 197 182 212 184 263 463 508 532 609 366 401 345 321 418 434 308 276 215 219 280 279 283 393 556 386 313 275 244 284 295 387 521 539 742 464 696 482 385 317 230 208 176 269 369 365 412 303 292 263 380 428 347 298 256 288 286 304 256 265 319 337 282 333 289 280 280 301 287 251 240 282 323 247 239 220 222 223 232 186 182 154 115 115 116 114 116 111 156 157 152 153 148 163 165 160 169 165 143 163 138 162 165 163 164 164 144 135 135 135 135 134 131 129 130 131 128 128 127 126 127 125 123 125 126 125 127 129 131 134 135 136 135 137 139 142 141 144 145 146 148 149 149 151 152 152 153 156 157 157 159 218 166 167 166 169 172 175 175 173 177 178 182 183 183 184 186 188 189 183 177 176 179 182 184 190 192 196 197 196 198 199 197 197 196 196 196 196 199 201 203 209 208 212 215 219 241 249 288 289 359 286 246 258 274 286 287 273 264 346 408 506 326 432 369 398 448 605 658 541 528 509 728 710 746 919 1102 975 986 726 760 637 637 570 820 723 748 723 584 472 427 538 670 857 885 1163 1200 846 823 580 412 484 866 934 644 642 761 687 779 530 711 785 708 878 892 843 907 779 793 680 784 664 702 652 629 591 663 788 1034 759 828 797 823 907 855 1068 1138 1128 1425 1134 1046 1225 1059 1145 1047 1096 993 1102 1071 822 789 859 1007 1025 1049 1140 1116 1200 1152 1378 1125
473 462 562 336 359 262 360 346 305 289 248 339 337 218 201 308 324 338 256 194 110 198 138 133 131 134 135 135 147 125 118 116 100 84 141 75 75 67 138 315 253 178 175 167 145 201 182 316 171 129 135 133 89 117 129 118 76 70 70 112 234 288 195 92 229 81 80 74 78 142 350 383 207 82 386 316 362 248 282 219 168 157 232 263 253 240 191 279 213 359 298 216 320 228 295 435 319 636 506 318 363 296 262 509 334 299 304 247 249 224 265 418 434 408 334 329 276 255 310 367 348 434 458 656 568 693 634 355 317 280 205 206 317 483 424 419 337 284 351 321 423 305 279 247 378 320 276 303 330 281 315 320 316 258 295 267 274 267 227 232 264 240 227 221 214 236 237 177 176 163 117 117 114 116 116 118 143 179 164 174 179 165 170 170 167 169 167 183 147 164 153 172 163 156 144 140 139 139 141 139 139 135 134 133 130 132 133 132 131 129 126 128 128 130 129 130 132 136 138 141 141 143 143 143 146 147 146 151 152 153 155 155 157 157 157 158 160 162 163 164 167 167 170 171 174 178 179 183 185 186 187 189 192 192 194 196 197 197 194 200 199 200 184 187 193 200 207 205 203 203 203 204 202 201 199 200 199 207 216 217 219 220 226 237 343 427 279 329 439 361 303 255 347 369 365 320 297 293 281 282 353 584 608 526 655 449 471 693 598 675 836 662 920 839 939 845 814 913 967 846 778 651 607 762 546 507 476 404 431 438 440 509 660 754 851 844 827 828 564 419 646 948 1048 967 742 1011 819 887 945 852 1013 1001 786 1100 1158 1121 1051 704 957 892 731 938 934 817 798 710 624 728 856 1104 858 1106 1398 1306 1154 1115 1563 1284 1230 1277 1051 987 1268 1068 1064 1202 1163 906 1132 963 839 793 811 997 1087 971 1107 876 968 1060
321 362 293 349 240 210 268 328 233 325 224 210 255 253 190 240 250 317 201 156 260 248 166 226 189 159 156 103 109 113 132 142 107 144 140 136 111 71 72 123 302 371 358 362 278 192 160 130 168 143 117 97 108 135 176 176 115 115 76 75 77 77 78 79 72 105 168 244 401 322 284 347 286 80 133 173 340 329 299 246 286 254 181 199 196 247 333 358 186 372 290 201 367 366 213 311 288 524 328 249 305 212 425 326 372 316 261 234 205 219 253 315 466 505 342 296 264 263 291 375 436 690 717 724 665 541 414 331 251 271 286 243 248 340 507 345 368 328 358 556 390 336 274 372 316 293 322 302 344 333 309 296 302 292 297 284 287 250 243 246 239 252 260 222 236 269 270 217 184 119 119 117 118 120 117 121 182 169 185 190 180 159 173 172 175 161 172 136 146 159 175 170 157 145 145 144 142 142 148 143 143 140 136 135 136 138 140 138 136 138 130 130 131 133 135 135 137 140 143 144 147 148 148 149 150 150 154 156 157 160 161 160 162 165 163 164 167 167 168 169 172 174 174 178 180 182 185 190 193 195 195 197 201 201 205 207 208 208 206 210 212 212 212 207 219 222 215 218 210 220 210 207 207 208 202 205 204 218 257 271 218 218 250 306 263 326 503 456 371 307 276 264 341 421 447 388 402 395 369 365 337 307 324 339 356 403 461 524 553 818 703 668 849 839 635 725 642 538 674 566 534 694 587 520 488 383 365 512 455 735 811 698 732 828 788 875 938 899 784 404 421 547 693 921 992 719 888 1006 1062 1178 1210 1300 1130 1373 1229 1101 1018 1147 955 755 931 909 972 1007 1027 904 680 784 993 1127 1323 1260 1047 1280 1292 1129 1189 1476 1330 1402 1123 1339 1136 1274 1115 1034 1036 1061 965 841 905 852 759 767 887 967 1032 802 1088 953
271 334 256 271 296 225 255 256 213 314 307 175 167 238 249 195 336 228 167 175 282 206 160 130 153 114 154 172 158 150 140 115 158 167 146 124 105 71 72 227 240 150 176 257 220 148 147 138 99 116 82 128 160 233 188 237 185 283 236 126 89 141 124 152 213 276 286 416 495 361 388 394 98 145 252 547 331 279 213 160 193 246 257 190 233 258 332 370 233 394 316 315 397 297 177 185 254 447 248 296 261 224 270 335 363 304 218 202 220 279 289 314 351 429 412 341 295 349 345 354 430 525 584 423 459 357 293 275 447 439 291 357 389 351 472 426 396 529 586 424 349 298 331 345 314 300 326 322 359 331 356 308 319 323 261 264 225 222 240 233 235 261 268 277 274 201 184 145 162 121 118 114 121 122 125 153 153 170 188 185 190 174 172 164 167 165 166 149 158 163 162 163 158 153 152 149 152 154 149 147 144 142 141 141 141 143 145 144 144 142 138 136 135 137 137 140 146 144 147 149 153 155 155 157 156 155 156 160 162 165 169 169 172 172 171 174 174 173 174 176 174 180 182 182 185 190 191 194 201 203 205 207 209 213 215 217 220 222 220 224 225 226 225 386 402 258 238 232 312 239 215 216 214 214 209 208 205 208 208 321 288 373 360 343 449 445 375 514 383 341 278 297 466 605 752 549 580 562 399 457 471 584 500 612 427 612 415 491 563 485 713 727 642 678 578 426 442 396 493 412 431 495 464 370 346 387 379 437 581 576 601 723 847 801 905 942 920 690 638 389 514 592 662 890 564 606 652 887 937 992 902 994 1082 1044 1057 1336 1166 1024 812 811 739 822 1051 1197 1110 945 772 712 729 875 1220 1093 1375 1377 1458 1352 1517 1325 1510 1363 1398 1472 1302 1381 1335 1108 946 951 1012 1065 917 968 850 876 794 713 756 928 981 803
302 240 222 281 239 288 185 263 179 220 168 146 166 142 197 306 393 310 241 156 269 174 243 213 190 180 155 200 208 164 119 149 165 176 125 175 138 72 78 105 136 173 129 196 146 156 149 96 127 107 84 108 132 177 222 203 175 180 115 244 165 403 147 455 277 436 536 446 401 514 492 232 159 156 404 515 437 285 298 281 173 146 186 202 184 240 236 226 303 253 352 411 252 183 185 191 244 387 241 214 239 188 396 372 365 245 230 188 273 256 278 380 417 336 319 342 358 315 312 316 344 366 415 516 493 558 351 472 543 359 348 492 592 553 590 751 599 599 383 414 472 416 376 400 317 320 302 326 340 374 350 343 295 269 230 212 231 186 218 261 289 298 197 165 150 224 214 217 216 136 125 120 125 126 126 127 127 129 165 165 162 161 158 162 162 153 163 161 158 156 158 160 159 157 162 158 156 154 151 149 148 148 145 147 148 150 153 151 149 147 145 142 141 140 142 144 146 151 153 155 157 161 161 162 164 164 163 167 168 173 176 176 179 179 180 183 184 183 184 185 185 185 189 190 191 195 199 202 206 210 214 219 220 225 226 231 231 234 234 235 235 238 236 265 328 296 312 242 254 240 222 226 225 222 218 215 209 211 212 213 237 296 324 526 553 464 376 395 322 500 484 473 366 535 677 867 835 735 493 437 538 712 557 494 465 508 551 490 613 443 603 522 712 604 645 555 774 569 418 411 332 382 326 360 407 509 537 613 585 458 527 851 733 749 781 664 727 719 579 379 427 525 418 542 731 837 897 766 825 986 914 861 889 966 1002 1136 942 945 857 994 796 842 1037 1277 1028 914 840 1000 905 721 743 801 872 1131 1160 1312 1061 1317 1539 1535 1684 1384 1274 1099 1018 1013 1209 1072 1156 1128 1206 1046 967 879 876 878 686 678 678 897
239 283 320 173 190 296 165 243 214 182 130 138 139 206 243 383 418 273 181 336 236 325 391 374 278 281 184 212 165 137 183 164 142 160 176 132 80 71 84 103 106 105 164 187 153 158 107 174 142 124 118 194 113 155 220 255 253 155 204 190 396 389 389 352 429 555 587 584 313 222 286 167 304 396 206 116 99 307 224 221 171 108 165 187 134 111 205 272 122 148 308 387 328 173 178 227 261 185 159 176 176 234 421 335 258 238 188 232 238 334 299 273 424 263 271 383 333 302 306 331 341 434 389 402 394 448 438 377 351 407 686 617 446 536 579 560 699 562 557 634 550 385 440 398 302 302 328 402 417 423 372 306 272 242 221 219 222 253 212 162 188 261 270 198 132 140 146 122 123 122 124 133 126 129 129 131 133 137 138 157 152 153 153 153 151 152 153 157 166 169 165 168 162 163 161 161 160 156 151 154 152 150 151 153 155 159 159 157 153 151 150 148 146 145 148 151 154 157 158 159 165 169 169 169 170 170 170 171 175 178 183 185 187 189 191 192 193 194 193 196 196 193 193 197 198 202 207 211 216 218 224 229 235 236 241 244 246 249 248 248 251 252 321 316 262 253 265 254 276 275 279 239 233 231 225 222 216 218 215 216 218 241 288 485 450 469 418 451 314 324 369 453 428 423 554 632 728 607 650 812 700 425 522 510 380 567 551 481 427 381 427 591 487 474 500 487 483 468 387 348 342 320 416 337 504 431 432 614 719 567 680 827 536 466 563 902 899 925 531 380 556 844 866 675 642 485 534 765 784 730 700 872 913 935 841 1007 891 994 1274 991 823 1002 1262 1203 1117 863 944 1079 1223 1027 843 1162 997 879 849 932 938 1004 1068 1140 1583 1276 1356 1087 1033 1279 1492 1143 1393 1358 1217 1068 777 706 782 799 773 753 744 695
213 242 229 313 223 163 149 268 231 162 128 139 153 186 238 297 417 275 246 327 303 226 296 234 168 206 165 170 154 143 132 136 132 97 87 88 72 82 148 121 87 158 162 164 146 163 149 152 147 104 132 216 159 141 205 261 240 232 272 414 370 319 402 506 452 548 374 425 427 303 86 591 498 167 429 154 307 255 183 102 105 103 106 108 110 113 117 119 117 116 120 119 318 158 179 137 132 135 144 148 143 147 181 278 216 192 224 203 314 367 233 224 217 246 314 342 336 292 322 400 359 364 337 360 468 524 521 470 448 425 396 390 462 480 591 647 596 538 435 520 404 333 347 302 302 398 428 433 389 339 437 347 263 227 229 206 208 235 191 154 152 145 137 132 127 124 124 125 124 139 160 158 157 150 135 135 139 140 143 146 145 148 155 155 156 156 169 177 177 176 177 179 173 167 165 161 162 161 161 159 158 158 160 160 164 165 166 163 163 160 157 155 152 154 154 156 157 162 165 169 172 178 178 180 179 178 175 177 179 183 194 196 197 198 203 204 206 208 207 205 204 203 202 198 205 204 214 220 225 230 235 239 244 251 254 262 261 262 262 264 264 270 272 281 312 278 284 280 284 296 286 284 250 240 231 229 226 218 219 219 221 223 242 282 331 282 304 388 352 505 510 415 425 395 526 484 471 480 562 571 703 516 440 481 363 437 405 466 592 398 359 438 353 406 386 385 363 352 319 316 315 330 356 489 448 425 556 748 670 546 515 478 730 932 429 486 359 364 491 440 510 718 973 774 946 933 689 640 829 900 873 858 695 709 742 822 1001 1157 1295 1133 1134 1280 1393 1129 993 871 1099 1174 1179 1288 910 1243 1421 1307 919 1206 980 1315 1654 1618 1580 1195 1370 1249 1179 1305 1335 1201 986 1078 866 732 744 1002 906 912 1036 958 876 861
345 291 217 178 278 203 158 260 183 186 148 125 132 194 226 270 309 302 321 291 284 217 131 117 115 112 133 157 133 99 102 89 74 75 78 89 91 132 132 157 108 94 121 160 200 177 150 192 159 111 139 171 228 144 194 337 263 430 417 354 361 456 556 438 184 293 396 154 214 179 290 323 230 383 483 472 322 239 220 158 114 109 125 169 329 200 142 196 188 155 138 129 125 164 162 147 185 196 197 192 221 257 224 223 159 165 175 260 217 192 234 217 243 337 343 301 294 292 293 301 307 370 396 421 480 476 371 564 355 401 594 566 404 549 515 547 706 631 563 437 355 399 328 332 357 373 288 320 250 381 361 301 234 224 211 230 222 187 181 156 148 157 136 128 126 127 129 129 152 153 165 162 152 163 160 141 141 147 147 150 152 158 166 172 209 223 235 224 207 196 184 183 176 174 167 169 170 169 167 166 167 166 169 170 172 175 175 172 172 170 164 163 158 159 159 162 167 169 174 178 183 185 191 187 186 184 185 182 184 190 200 205 211 212 216 218 220 220 219 221 217 216 214 210 214 217 224 228 233 241 246 253 258 265 269 275 278 280 281 280 279 289 287 291 296 294 299 302 297 297 297 269 290 252 241 240 236 234 227 221 224 223 226 229 231 240 244 261 263 292 346 376 415 455 498 450 349 398 383 574 525 369 362 392 352 314 333 394 472 413 314 307 388 366 356 313 313 311 306 310 312 323 391 432 674 423 641 754 703 512 584 427 503 396 353 487 642 582 802 725 777 618 909 1144 920 819 1072 753 763 815 947 969 987 964 902 1083 1253 844 926 1005 1100 1237 1318 1073 982 1055 1205 1400 1451 1535 1269 916 1165 1206 1305 948 1195 1326 1396 1227 1725 1513 1589 1291 1142 1347 1095 1090 1078 913 827 735 1076 970 1054 1162 1064 902 1183 1053
326 176 162 221 141 128 133 207 157 190 204 118 134 192 212 275 269 294 261 223 303 236 177 133 170 214 123 100 89 86 78 73 88 85 101 129 141 156 154 141 155 158 148 169 188 198 201 166 161 102 140 204 235 232 184 357 495 492 326 369 263 312 328 275 197 181 166 397 458 318 333 357 373 362 528 418 341 369 255 186 160 114 150 252 314 314 181 422 346 227 185 271 130 133 179 195 263 314 209 243 233 275 293 253 222 171 184 195 213 233 278 311 454 337 274 277 282 288 293 301 322 310 319 325 327 335 348 376 374 443 590 518 578 429 487 588 522 591 412 417 324 307 299 331 282 244 239 226 256 223 217 220 219 220 215 225 208 201 175 163 165 148 141 136 127 127 128 154 168 146 171 153 155 153 153 145 155 153 152 154 158 159 161 205 209 228 277 267 282 242 194 180 180 176 174 176 179 175 170 172 173 175 176 179 181 183 182 181 180 178 174 168 166 165 167 171 175 178 183 189 194 197 196 198 196 193 190 187 188 196 204 215 222 228 232 236 237 238 237 235 233 230 232 228 231 231 233 240 245 251 259 265 271 277 285 289 294 296 297 298 297 303 302 307 306 309 311 314 309 305 292 304 290 281 262 257 245 236 231 231 233 228 232 232 232 236 273 347 318 349 514 370 333 365 474 377 345 350 397 394 579 425 415 315 289 291 287 283 285 296 300 298 296 296 298 300 302 302 350 418 484 326 378 614 724 512 848 888 621 604 422 616 396 348 667 822 984 871 1067 949 992 1167 1024 931 865 1023 1073 1015 1004 1036 917 931 772 983 975 998 948 725 757 992 1057 1217 1320 1070 1122 1042 1009 1033 1333 1409 1432 1108 1203 1443 1231 983 1283 1469 1487 1365 1575 1372 1239 1152 1246 1165 1288 1112 1087 930 797 926 1297 1156 1191 1048 1227 1008 911 994
238 223 286 305 280 252 177 150 118 203 168 164 116 143 183 170 185 165 162 215 313 346 307 269 210 181 145 170 126 78 190 182 113 140 133 180 171 152 143 116 172 169 129 187 234 225 199 187 120 138 129 187 277 273 350 434 413 309 373 182 241 138 203 178 123 306 448 280 278 205 290 299 417 498 490 268 338 216 202 147 120 133 173 302 488 475 270 374 510 299 211 417 161 135 241 252 432 326 253 242 280 306 265 293 193 266 277 251 253 313 451 366 300 268 285 323 316 341 400 333 342 345 362 363 420 439 448 461 411 503 645 737 564 495 514 499 648 510 400 336 306 304 340 329 245 255 271 233 239 228 220 214 220 206 222 199 196 185 173 173 155 149 143 136 129 128 129 129 164 143 149 149 149 149 150 150 155 159 155 162 164 166 168 200 265 274 398 358 338 240 193 186 185 182 181 187 187 184 182 182 182 183 184 188 190 189 190 192 190 186 182 183 177 171 172 176 185 189 196 204 207 212 213 212 206 200 196 196 198 205 214 223 235 245 250 252 256 257 254 252 248 248 247 249 253 254 250 259 261 267 271 275 284 292 301 304 311 314 316 317 314 320 322 322 323 324 325 328 327 318 320 311 304 285 278 290 303 299 302 263 249 256 251 246 252 242 327 303 403 326 249 249 251 254 256 257 260 269 377 411 335 425 389 297 282 280 281 282 286 288 289 292 292 294 296 298 300 355 324 465 334 408 462 513 660 693 918 753 727 709 430 520 635 344 423 761 792 776 974 751 873 811 732 809 765 833 824 1142 840 947 677 755 591 794 534 545 685 864 1142 1146 1188 1278 867 1440 1301 1307 1463 1223 1289 1417 1533 1029 1370 1589 1290 1121 1383 1523 1401 1256 1079 1096 1129 1258 1320 1086 1036 1168 1181 868 766 892 1102 1252 1192 1106 1213 1317 1152 1113
251 299 343 339 284 270 259 211 158 114 113 107 109 120 177 146 147 237 223 202 348 236 216 151 126 117 109 97 83 81 109 240 188 194 160 194 226 193 142 197 188 160 163 212 208 170 173 127 145 176 275 236 165 216 399 317 209 395 373 305 208 184 121 98 94 227 230 266 248 289 225 331 421 472 469 400 262 198 183 130 137 176 210 499 458 447 445 557 429 302 234 185 139 143 197 170 253 394 278 264 299 336 296 232 278 329 354 303 299 342 318 258 262 289 315 368 340 463 452 414 349 486 488 397 518 760 588 466 450 570 636 628 556 666 677 529 612 424 346 314 298 375 407 274 271 277 293 316 234 228 223 213 223 216 210 201 193 183 169 174 163 154 146 130 130 128 132 169 153 143 148 146 150 152 153 155 154 160 168 164 167 171 175 174 265 268 264 345 260 210 194 192 197 194 195 202 196 198 191 191 190 189 195 198 201 201 200 201 198 195 194 188 184 179 181 186 194 201 209 215 220 227 228 223 221 213 207 210 219 219 231 239 248 260 272 274 277 279 274 269 268 273 273 271 274 277 279 283 286 290 290 290 295 308 315 321 329 333 334 337 334 341 339 342 338 342 345 347 342 333 337 329 323 306 302 323 321 321 326 320 294 301 276 289 267 265 240 242 244 244 251 249 252 254 256 260 261 266 264 274 380 277 284 275 277 279 281 282 284 285 286 289 291 293 295 299 317 351 499 427 378 530 653 677 474 491 556 512 588 584 474 386 453 335 408 625 693 956 741 748 636 671 880 725 738 541 891 814 765 656 731 835 742 477 630 781 831 1153 1243 997 948 1066 800 1058 1293 1242 1119 1048 1068 1310 1472 1115 1300 1701 1543 1139 1333 1430 1487 1372 1227 1187 1047 1230 1392 1318 1397 1218 886 783 818 1086 1176 1090 1064 1436 1337 1240 960 940
314 379 325 305 241 216 180 128 154 148 193 180 196 104 113 141 151 143 201 281 418 303 271 232 158 120 110 84 83 140 109 166 141 230 292 189 165 164 148 163 189 186 268 250 217 153 128 117 128 230 285 339 231 213 284 443 306 153 172 164 129 116 128 97 232 207 151 165 217 228 408 430 470 400 380 236 217 211 139 198 252 174 256 263 330 470 412 279 262 213 259 345 144 175 257 324 205 390 366 347 291 247 256 239 385 387 303 321 347 279 253 273 298 330 406 440 463 499 420 439 351 385 438 569 583 489 448 434 484 464 584 582 596 659 651 634 402 364 303 294 326 413 303 320 423 289 253 209 228 227 212 221 225 205 204 188 189 183 183 184 235 248 196 132 132 132 130 132 144 143 145 149 152 155 160 162 161 167 169 171 175 180 182 183 186 222 235 329 240 202 201 203 206 210 208 213 210 208 206 202 199 196 201 208 211 214 205 211 208 206 202 197 200 192 181 198 210 220 227 235 236 246 247 239 229 241 248 248 257 263 258 265 266 278 288 297 301 301 295 290 298 299 301 300 305 307 315 317 318 324 323 312 310 318 328 337 348 353 353 358 359 360 358 358 355 358 363 364 356 361 352 349 344 355 352 350 345 347 338 332 305 296 303 308 285 341 410 391 375 388 417 344 338 308 257 259 261 276 277 267 269 270 273 276 279 280 284 285 287 288 289 290 290 335 329 432 397 596 409 411 531 634 455 415 419 381 383 383 392 417 481 568 532 383 333 506 611 562 505 621 473 706 800 822 642 453 596 634 805 536 594 585 454 546 536 780 939 1039 946 719 981 842 771 902 906 767 1079 1195 1116 1228 1571 1742 1499 1898 1786 1478 1423 1468 1507 1364 1228 1034 938 1111 1185 1359 1077 1103 810 908 848 984 956 972 1117 1280 1313 1115 1216 1339
289 303 259 201 214 162 131 196 206 190 179 238 198 148 100 113 143 211 277 257 221 195 215 263 205 155 87 85 84 189 187 187 218 239 210 227 162 160 160 202 211 212 239 250 146 131 141 200 237 207 317 305 192 183 212 221 241 168 136 167 237 340 163 98 102 109 170 148 196 216 244 529 538 325 381 350 212 201 145 213 479 273 533 633 434 485 391 626 341 436 330 215 181 306 415 425 277 401 387 274 323 303 253 262 397 342 390 344 304 247 275 309 415 425 450 434 514 566 446 381 388 427 407 445 646 582 472 458 485 580 543 661 729 529 454 408 381 334 289 299 422 351 294 334 264 239 216 206 227 232 204 217 208 196 186 183 181 207 191 234 244 213 147 137 134 131 132 136 144 169 172 172 176 158 157 163 168 170 174 179 182 186 189 190 193 203 208 208 204 208 207 211 216 219 224 227 229 224 221 216 207 208 215 220 223 225 215 222 224 219 215 219 230 250 298 287 252 265 264 276 263 260 259 606 609 669 582 442 360 514 479 337 314 302 320 317 323 323 313 322 334 338 337 339 350 343 361 362 356 365 367 359 364 339 343 356 363 371 376 382 381 378 378 370 370 374 382 382 378 386 380 371 355 364 391 373 365 361 350 346 332 313 328 320 303 300 334 377 347 358 325 337 388 286 306 327 384 319 292 360 275 274 277 278 280 283 284 288 290 292 294 295 289 289 346 518 385 346 365 425 374 412 420 380 360 351 346 341 338 338 346 356 337 385 330 384 353 479 546 494 483 579 444 598 601 678 394 685 509 528 425 603 650 599 675 732 901 826 684 802 579 617 723 959 738 766 826 884 1211 1553 1210 1091 1111 1527 1524 1414 1475 1148 1370 1114 1173 1102 1123 1028 918 1064 994 805 943 1037 886 866 1033 1081 1159 1070 1325 1510 1133 1344
321 263 202 218 185 148 215 218 242 144 183 208 187 238 152 148 101 115 130 141 172 261 244 163 197 95 85 93 90 196 192 254 289 251 191 235 238 222 211 228 348 259 168 148 207 263 160 261 243 244 230 223 167 156 167 176 201 177 238 239 395 284 100 97 153 196 209 236 320 223 245 323 356 291 407 246 201 151 176 220 346 444 339 360 461 565 496 623 594 510 210 167 325 407 571 405 476 352 332 304 346 349 254 272 421 386 349 291 242 287 321 340 433 609 540 454 424 557 421 381 438 591 492 542 583 523 487 471 586 568 457 610 705 457 472 546 440 297 276 266 346 308 395 320 267 218 217 207 223 218 217 200 195 184 185 193 242 230 259 196 219 220 146 136 136 138 134 159 154 190 182 176 167 164 166 170 174 178 181 186 190 193 196 204 200 203 206 211 225 230 230 246 229 237 238 242 243 292 241 402 324 259 247 246 241 238 225 253 270 299 322 325 270 343 354 364 442 419 485 483 588 666 363 650 708 742 599 565 634 607 498 456 474 503 398 430 341 339 342 362 374 387 384 388 402 439 445 441 478 413 585 616 500 590 565 431 397 385 395 403 402 405 397 390 389 393 400 403 404 403 399 396 380 393 400 412 392 382 375 364 343 351 349 329 322 346 352 349 346 341 434 451 356 312 330 351 336 305 302 299 299 302 277 281 282 285 287 287 292 294 300 300 327 320 432 305 321 310 308 315 383 452 460 449 483 393 451 400 382 328 323 321 324 326 326 327 332 348 352 360 336 340 343 348 354 364 370 397 382 414 584 568 532 581 556 491 487 521 525 654 620 957 1051 1214 951 1042 1219 1337 1114 1230 1376 1167 1086 1123 1420 1191 1210 1251 1026 1200 1036 1034 1024 1067 867 828 1079 981 1050 1134 899 1071 939 955 952 1160 1306 1489 1398 1578
263 219 251 176 220 221 265 224 223 256 258 165 185 238 190 176 142 102 97 99 344 184 92 90 91 99 164 210 111 104 256 147 257 262 343 262 272 214 276 188 276 250 335 258 233 224 190 294 215 218 234 203 189 153 170 198 238 219 253 222 178 147 100 148 196 361 508 715 399 551 551 408 282 226 210 200 164 225 295 502 504 289 446 597 654 411 442 370 336 173 274 445 388 319 377 578 500 434 349 328 375 372 366 315 299 334 268 234 241 337 406 413 796 736 488 344 424 365 391 522 473 440 471 503 639 689 513 349 407 586 590 530 423 399 373 298 256 248 228 266 255 284 303 237 226 209 222 205 207 191 188 187 180 188 212 211 241 258 259 219 209 193 185 137 139 138 156 173 186 173 185 210 192 173 185 181 188 194 197 199 203 207 209 214 215 216 221 233 230 234 248 278 324 290 285 261 274 407 371 491 505 393 428 417 514 377 240 350 386 402 545 636 379 533 767 801 688 827 838 616 803 685 780 465 485 749 932 687 633 638 665 651 711 696 584 556 523 493 673 627 647 491 530 496 508 503 502 506 492 503 483 644 787 700 692 589 588 470 463 430 462 456 443 437 427 425 430 434 437 434 432 423 437 434 435 438 435 426 412 403 390 384 364 356 353 377 377 379 377 363 344 333 334 330 334 328 325 327 325 321 311 310 301 311 297 292 297 295 296 296 299 328 367 306 306 307 318 313 348 308 309 310 311 381 478 424 320 320 389 319 319 320 427 540 476 365 670 779 589 415 404 618 640 724 444 476 552 604 491 398 507 578 824 783 678 620 636 786 933 873 1163 992 1129 1359 1038 1037 989 1132 1489 1188 1231 1277 1341 1083 972 1060 1273 1271 1075 977 940 908 922 921 1072 984 903 969 997 1289 1237 1049 1131 1030 1267 1210 1438 1282 1205 1014
138 195 180 210 274 260 246 273 227 220 241 152 154 177 179 206 143 183 113 155 126 114 124 163 186 126 183 182 104 143 207 141 304 257 319 298 294 405 207 287 361 354 323 311 359 291 247 306 217 295 204 262 162 161 163 175 146 168 126 104 105 105 149 200 389 518 732 571 560 474 363 330 260 286 222 200 175 240 482 529 500 447 601 583 609 546 387 194 288 240 327 384 297 440 725 770 613 425 379 388 395 450 339 268 318 295 227 228 241 256 309 449 528 549 393 315 324 414 437 414 356 443 558 555 585 452 364 365 559 484 379 360 368 365 331 293 254 260 222 257 219 210 233 240 207 200 192 211 190 184 170 173 201 186 202 270 247 207 214 244 208 158 139 138 138 146 152 147 152 156 160 166 172 176 182 192 198 204 209 212 217 218 221 222 225 225 231 239 245 275 349 373 361 318 305 278 307 359 436 509 522 535 550 536 438 377 271 245 328 418 490 604 528 682 724 860 671 905 938 979 833 753 776 707 654 447 647 551 529 620 615 617 580 568 542 572 506 441 519 665 738 577 790 536 863 673 538 535 545 552 557 565 587 609 655 652 605 514 525 445 495 493 490 487 467 454 457 456 461 460 454 461 465 466 473 471 467 454 446 432 418 410 382 372 402 402 403 407 399 371 362 356 351 348 352 340 341 344 339 334 342 316 306 336 344 329 319 300 305 308 309 303 308 315 315 323 313 310 307 309 309 310 310 311 359 315 316 316 318 319 320 321 400 609 585 606 607 504 476 578 785 604 587 722 489 748 886 763 520 573 532 445 562 608 734 743 920 864 906 1012 1075 1262 1138 1340 968 940 961 1297 1242 1305 1163 1029 896 752 1062 1148 1221 1065 1036 942 895 885 898 1071 1198 1000 863 1101 1124 1038 973 1047 1182 1192 1265 1419 1282 1231 1021 1004
103 183 238 249 256 348 311 226 218 148 158 159 125 154 175 181 187 192 182 148 220 219 153 173 210 178 228 151 107 233 231 172 254 440 402 477 482 245 352 294 451 395 459 443 346 366 282 244 239 222 220 231 174 193 199 128 143 114 108 108 108 115 162 317 522 464 469 593 415 460 350 468 339 251 232 183 237 269 299 455 685 565 428 398 406 258 194 189 449 309 434 361 461 568 903 599 574 451 417 444 343 321 307 272 309 233 223 224 246 291 367 318 315 320 298 277 366 345 380 321 382 451 624 538 572 383 327 362 323 290 301 316 377 430 275 245 228 217 225 210 212 293 281 231 197 192 185 196 175 173 170 170 210 199 226 311 218 307 229 185 174 220 140 144 142 147 192 174 173 189 194 183 197 185 190 197 208 214 222 227 232 233 234 236 234 236 243 255 260 307 388 355 377 350 322 291 456 419 390 496 503 518 539 541 507 392 296 269 260 357 445 498 588 519 533 586 680 957 1225 899 846 717 513 444 528 545 508 581 579 554 587 677 610 557 551 610 527 520 477 582 679 680 779 597 791 802 744 643 607 619 641 623 662 665 653 645 596 582 576 472 518 538 535 532 516 495 493 485 486 490 478 491 502 504 509 508 505 484 474 461 449 418 403 392 436 428 445 430 419 397 393 374 369 366 368 359 363 373 388 353 345 319 316 343 331 356 335 306 358 320 316 316 313 320 321 322 318 316 312 311 311 311 311 313 314 317 319 318 318 321 323 324 323 555 530 612 389 432 368 470 584 872 606 884 625 798 767 627 740 739 582 662 745 741 695 562 824 870 732 719 766 938 1211 1022 1005 904 710 1041 952 952 765 651 809 909 1185 1064 1169 1105 968 907 888 898 967 1065 1151 1153 990 883 1076 1073 1130 1025 1133 1210 1266 1321 1364 1238 1046 1009
142 150 153 144 209 195 202 215 167 157 126 119 125 153 166 236 263 173 221 165 128 200 245 309 294 357 194 122 186 176 325 326 322 304 375 483 310 314 461 344 488 417 330 461 323 269 322 244 166 168 222 226 246 221 198 119 111 110 108 110 105 134 176 315 350 422 565 613 413 324 278 232 248 257 249 197 348 313 594 577 421 312 336 348 248 196 212 255 287 380 403 380 450 769 1034 927 894 552 363 344 302 315 250 284 245 219 220 228 289 253 233 245 251 253 403 341 279 340 302 376 521 458 386 511 546 363 273 261 292 402 401 423 399 320 254 219 229 212 210 209 243 334 262 208 204 191 194 189 171 166 166 170 217 303 284 254 293 258 252 214 218 147 143 140 145 167 172 167 183 187 186 200 205 213 198 207 217 227 236 242 246 254 246 249 247 248 259 264 326 292 385 396 364 386 351 308 446 441 343 448 492 517 515 514 399 413 311 297 263 304 441 473 567 672 672 654 658 652 632 597 509 563 517 512 603 611 724 730 638 628 620 637 715 728 657 665 654 650 498 586 646 723 870 699 774 699 896 1026 877 925 764 933 925 879 728 683 648 649 712 504 534 565 581 570 550 544 535 526 513 515 510 526 539 546 552 555 550 525 509 494 479 431 416 442 465 481 477 461 443 428 415 404 389 386 387 370 380 395 377 368 348 329 326 359 360 348 337 317 329 331 325 325 321 321 331 329 326 321 315 311 310 311 313 313 315 316 317 321 322 323 324 324 495 374 535 409 347 344 349 446 499 683 801 945 905 833 569 707 750 674 782 657 653 459 487 592 635 845 891 940 987 985 824 1012 971 686 758 726 549 778 896 784 1060 1013 1114 1059 985 994 911 893 894 1014 1066 1085 1157 1151 1021 907 972 1022 1016 1014 1106 1175 1296 1251 1193 982 934 930
124 119 139 143 249 223 189 214 146 124 112 131 189 243 150 234 222 312 306 182 207 226 363 261 268 173 142 122 235 268 208 363 244 279 469 403 313 453 528 561 402 268 327 385 336 216 208 194 197 179 196 135 118 115 114 112 112 112 137 112 111 120 157 189 237 316 409 341 491 288 282 357 308 254 236 247 378 366 371 462 431 334 309 241 207 238 282 443 612 536 442 464 655 800 833 539 572 405 338 300 280 261 238 248 233 217 216 240 270 242 228 277 303 302 301 274 340 278 316 477 370 435 525 599 373 268 248 249 258 285 325 390 272 241 229 212 211 207 208 226 227 223 220 208 199 209 187 188 165 163 162 164 218 571 249 261 221 185 211 154 146 146 144 142 146 165 194 202 182 197 178 180 205 224 237 236 255 240 252 259 262 264 261 263 260 260 268 274 350 367 322 404 410 396 396 328 441 429 446 446 494 490 476 464 470 451 402 322 305 272 399 485 495 613 715 599 660 697 700 719 676 600 572 498 663 824 857 932 702 673 552 613 700 850 774 702 733 664 550 562 617 725 758 938 823 733 880 1001 811 963 923 1058 921 1007 957 863 757 715 757 506 623 613 676 642 632 615 584 564 544 542 550 577 591 608 620 617 637 615 581 581 538 463 436 505 511 531 520 485 485 474 451 419 406 407 407 385 396 410 399 388 378 344 334 337 372 364 360 360 356 353 332 333 333 332 332 337 338 333 323 311 310 311 313 314 316 318 320 320 322 324 325 326 376 399 364 332 333 335 335 335 454 412 612 553 512 757 706 398 435 533 543 406 586 797 841 800 688 899 582 643 605 727 751 972 594 502 513 806 815 942 1030 710 1026 1049 1013 1045 1047 919 905 906 999 952 1006 1130 1177 1031 1011 928 923 1036 993 1017 1080 1169 1343 1344 1052 1198 1342 1047
91 92 120 137 128 173 152 135 121 108 117 175 201 181 265 223 276 280 299 341 270 304 339 338 204 220 129 189 167 262 259 311 419 358 508 433 289 387 394 292 335 277 358 270 225 210 184 177 166 125 119 113 112 115 121 128 131 136 117 114 115 121 125 141 196 210 222 431 489 426 375 449 321 278 251 352 384 309 358 343 398 340 262 212 273 377 537 474 460 425 514 499 555 551 574 470 402 413 346 301 262 256 230 245 231 213 214 224 240 240 234 266 373 443 340 366 277 270 301 321 398 339 294 290 270 235 327 299 304 406 422 330 267 212 202 202 202 205 220 258 259 244 225 237 214 220 188 175 165 160 161 275 375 214 224 189 189 148 148 148 144 144 145 144 156 170 180 196 193 207 209 187 206 235 234 239 276 302 273 280 278 277 277 276 273 274 322 314 313 396 351 438 441 463 424 347 377 468 433 433 446 459 458 480 477 502 485 350 329 320 288 419 365 542 676 663 774 856 868 917 893 802 699 577 671 1030 1129 1174 1003 840 682 962 768 655 750 785 747 651 580 574 676 750 863 1058 1026 823 956 986 1000 1064 1064 1057 1057 1044 1072 851 780 804 615 541 616 665 787 996 818 798 778 682 606 572 731 877 938 780 753 725 736 750 586 673 567 458 474 581 578 594 597 550 533 500 451 435 428 426 423 418 408 437 456 433 414 377 353 347 349 352 388 386 366 353 352 343 343 343 338 346 346 357 346 332 323 318 314 315 317 318 320 320 323 324 325 326 328 490 330 331 334 336 337 431 448 485 455 409 598 408 362 413 693 724 650 633 752 886 1090 942 669 724 649 421 633 790 678 484 459 599 874 628 682 929 1148 772 1255 1284 1022 963 948 981 930 964 1192 1050 968 1057 1144 1017 1103 967 1018 979 1064 1115 1102 1413 1489 1198 1200 1354 1519 1196
82 94 95 106 117 138 174 162 183 98 128 154 148 168 191 278 268 234 291 350 318 295 226 189 208 143 359 220 193 220 281 421 451 569 403 345 377 477 441 367 392 468 327 207 234 182 179 135 122 121 117 118 134 145 160 142 162 169 133 119 116 123 129 134 181 264 196 242 440 661 633 503 488 299 295 462 474 373 349 347 328 418 224 245 391 471 373 468 561 478 572 471 493 514 633 537 383 342 324 262 273 247 255 226 219 210 225 240 247 218 225 313 258 267 243 274 249 262 377 403 436 384 415 444 246 224 218 271 344 227 240 192 196 198 199 198 204 231 394 313 265 267 239 257 212 209 189 166 164 159 232 189 223 156 153 152 149 151 173 147 147 144 144 170 186 183 188 204 193 208 227 240 254 262 297 271 354 329 329 317 292 292 292 290 287 310 386 377 309 428 438 354 434 470 461 373 355 426 460 449 476 498 511 515 531 542 569 470 363 350 287 316 369 495 550 639 777 735 848 761 657 671 589 640 684 705 784 889 920 916 748 996 1058 780 922 861 758 672 617 679 746 758 815 954 1028 865 1197 964 1115 1141 1185 1107 1227 1108 861 764 728 683 555 691 652 847 838 983 967 864 908 851 774 608 849 935 1033 1010 841 833 737 739 771 723 553 477 508 727 732 772 668 650 619 543 512 461 449 448 443 435 427 454 467 457 458 446 415 359 360 362 362 380 388 386 382 378 351 349 346 350 353 371 379 349 340 329 325 324 324 318 320 319 323 324 328 328 329 331 334 333 335 337 337 339 338 340 361 357 348 351 353 358 371 499 661 835 806 811 881 570 623 546 392 390 538 444 467 618 562 725 1034 968 1103 1031 1122 917 1378 1195 1089 1006 976 960 963 961 1196 1185 1062 1175 1028 1066 1156 1040 1085 1013 1075 1152 1401 1363 1250 1314 1417 1579 1251 1041
75 106 88 123 114 96 102 136 94 108 183 202 289 209 298 213 398 291 319 273 289 301 403 185 178 327 249 236 226 410 381 398 392 438 403 502 464 424 377 294 302 214 231 170 134 130 122 120 120 121 129 169 167 149 170 163 185 195 140 125 123 128 132 146 192 338 485 423 463 565 396 481 420 287 388 617 560 459 418 449 357 395 256 294 457 430 375 349 386 517 509 402 539 676 493 473 359 389 288 283 253 261 238 239 208 218 248 259 227 211 210 220 275 225 230 234 256 297 402 442 548 508 375 319 242 214 210 257 206 189 190 193 197 197 197 195 209 373 379 306 329 302 269 241 206 208 178 160 155 157 158 158 156 155 155 154 153 158 152 152 155 149 149 189 176 188 203 190 219 227 242 267 263 293 340 403 411 375 433 358 317 308 308 304 386 345 438 386 323 458 441 380 426 443 453 458 370 421 476 515 565 615 638 624 622 621 615 603 432 412 337 326 370 506 582 789 688 736 852 766 725 648 683 658 642 605 662 747 746 806 873 959 1049 886 919 907 797 698 656 661 729 823 983 1132 1009 947 1225 1206 1212 1292 1310 1305 1297 952 766 706 571 590 656 732 780 807 842 860 880 926 917 826 811 658 1050 861 972 954 965 937 811 711 689 646 535 494 548 593 670 771 719 861 676 585 538 504 475 483 462 449 452 429 429 455 465 454 438 379 375 374 375 375 382 420 437 364 360 359 356 361 365 363 366 372 362 337 336 336 335 335 330 324 324 325 328 329 332 333 335 337 338 340 340 339 342 339 340 357 440 437 388 379 478 603 637 583 744 541 561 578 446 369 409 658 684 697 688 615 750 880 967 1104 1003 1247 1109 1135 1179 1357 1191 1098 1139 1112 1004 1024 1119 1129 1020 978 952 1025 1039 1026 1115 1102 1233 1265 1267 1151 1173 1141 1248 1448 1170 1052
82 90 108 80 87 100 101 107 129 156 177 290 322 319 220 267 298 308 278 434 263 203 159 180 232 404 347 267 220 231 304 418 408 568 554 493 404 417 233 356 277 161 129 129 128 129 128 127 149 167 154 212 226 199 227 226 196 190 137 130 125 132 160 167 258 473 476 345 533 548 510 379 336 289 422 500 554 623 474 543 428 294 240 459 272 547 571 487 567 468 377 540 488 369 368 389 359 319 315 263 256 260 266 299 203 204 221 228 207 208 237 214 216 225 259 312 362 303 360 358 510 430 472 255 222 208 204 263 204 196 195 195 191 193 196 194 198 214 311 381 556 331 276 254 213 185 169 160 174 161 157 158 156 156 155 158 155 153 151 152 152 147 181 165 184 180 192 219 236 246 261 277 340 431 379 468 623 681 569 359 406 327 322 315 434 402 472 342 360 456 449 431 438 451 480 516 439 386 465 464 616 730 810 810 825 791 743 697 516 508 423 311 381 423 483 671 754 797 915 922 795 814 668 594 626 627 667 737 825 771 993 1333 1385 1246 1377 1264 1040 856 682 806 866 906 950 1000 961 1042 1182 1465 1219 1285 1081 995 919 793 606 613 650 711 799 972 1006 1004 1029 1043 1017 910 884 815 704 787 855 951 1100 1345 1299 1131 958 882 845 764 636 513 663 691 769 784 826 921 825 704 607 541 525 492 474 481 481 460 451 439 468 471 461 401 405 384 388 387 391 394 429 377 369 366 363 374 374 374 373 379 385 365 359 350 348 345 342 340 328 328 327 331 332 336 338 340 341 343 344 344 343 343 344 344 344 343 508 415 426 507 403 488 400 397 353 356 368 420 448 400 405 423 613 644 830 924 888 802 898 966 1302 1328 1241 1224 1084 1254 1200 1324 1207 1084 959 942 1006 896 968 850 1035 991 1024 1159 1221 1019 967 987 1194 1250 1130 1187 1042 1001
69 98 77 89 112 110 124 169 135 149 209 249 261 237 194 279 396 393 239 246 263 170 244 243 222 349 456 335 413 361 385 458 449 380 444 296 302 413 337 246 184 143 131 325 197 204 215 186 155 222 172 284 288 224 312 280 220 162 144 134 131 137 152 186 239 379 247 466 402 593 703 403 464 343 425 490 409 514 851 485 389 397 246 343 412 538 563 474 451 407 502 481 386 348 285 409 347 284 310 310 307 406 349 320 245 203 203 202 207 207 220 214 290 313 332 421 303 313 418 468 350 344 266 233 213 206 197 200 201 192 191 190 193 190 192 189 359 249 265 373 480 281 208 222 199 191 164 162 160 162 160 158 158 157 160 157 156 155 152 154 154 176 170 187 176 181 202 206 217 265 306 298 407 498 460 564 925 550 409 669 582 339 334 398 456 394 502 356 407 430 470 459 488 525 575 611 497 588 551 685 706 708 688 765 918 963 928 839 635 637 482 331 364 416 480 613 839 888 1022 1070 817 743 706 766 867 808 936 945 870 854 833 972 941 1026 1004 1020 967 916 1076 926 772 1076 1266 1298 1154 1393 1280 1052 1018 1282 1146 1121 916 674 652 697 840 1246 1352 1372 1327 1445 1525 1432 1229 1116 1056 869 730 942 1195 1190 1127 1142 1131 1096 1093 1073 778 630 534 687 941 1085 1091 982 919 809 728 678 634 601 507 495 517 504 493 483 467 461 476 482 473 435 418 405 404 401 403 404 406 384 389 373 372 393 387 389 390 388 386 377 369 364 361 356 352 346 343 331 331 332 335 336 337 340 344 345 346 347 347 348 345 343 344 343 343 343 344 345 347 349 350 351 370 435 518 535 612 671 567 651 467 557 583 814 728 704 936 1147 1071 996 961 901 1218 1417 1375 1490 1307 1184 1075 998 879 856 863 873 845 942 902 938 963 928 883 1170 1259 1268 1184 935 890 912
70 150 75 91 109 120 139 113 138 167 218 241 255 347 267 281 326 265 278 213 195 222 287 328 196 281 362 373 451 413 400 438 477 332 351 331 258 303 258 214 189 134 181 256 191 265 204 143 171 213 184 350 373 266 266 256 185 154 143 136 133 139 163 191 323 568 514 409 517 771 586 522 439 374 494 437 406 490 988 503 445 338 260 258 270 283 293 304 378 493 492 542 418 368 280 391 306 303 383 314 354 418 369 298 243 218 200 216 242 236 226 247 238 280 375 356 259 281 402 403 477 280 362 229 207 199 197 196 193 192 192 194 190 195 192 190 243 424 309 459 346 237 201 190 181 172 167 160 161 162 160 159 158 159 159 158 156 155 155 154 155 193 175 179 177 188 211 221 245 265 339 412 450 705 560 703 823 556 542 699 472 348 340 447 486 450 483 365 415 461 488 488 528 579 569 622 676 626 501 714 922 975 816 783 761 1015 993 888 749 584 492 375 320 427 489 597 758 1050 1092 1047 863 776 647 894 1249 977 1016 965 895 873 857 819 820 877 950 1007 892 816 931 1039 926 863 934 1151 1145 1085 1156 1108 933 1039 1305 1022 829 640 751 1146 1333 1378 1305 1465 1390 1568 1647 1790 1668 1297 1198 915 750 972 1186 1073 1049 1032 1023 1017 993 986 786 556 604 885 884 902 919 903 795 741 700 644 597 554 514 535 517 511 498 486 479 468 460 509 490 439 425 413 413 410 409 411 402 391 380 376 375 401 398 396 397 394 391 393 371 370 367 363 357 352 348 341 333 333 336 337 338 341 345 347 348 348 349 347 347 346 344 343 343 343 344 345 348 347 350 416 396 415 460 676 630 740 791 544 605 479 597 546 582 1034 1225 1182 1153 799 744 1159 1414 1217 1295 1269 1113 1115 991 1046 958 886 875 822 811 801 795 789 915 917 1147 1168 1155 1110 1160 980 945 816
72 75 83 85 92 137 166 148 128 143 151 178 160 197 263 334 357 237 295 266 227 253 256 301 301 325 382 487 475 423 321 333 238 215 201 264 212 193 245 211 137 133 227 274 196 186 189 178 174 203 261 343 462 284 261 241 196 154 141 136 150 152 155 183 389 426 435 569 587 638 767 464 465 462 498 432 378 344 519 568 404 348 264 285 361 352 509 544 400 471 550 371 320 391 364 263 281 409 414 306 440 404 293 250 199 200 250 330 290 240 263 287 255 289 228 300 212 298 386 437 341 370 229 205 196 198 195 197 205 190 193 189 194 190 193 191 203 381 420 429 301 249 204 183 174 167 167 164 162 162 163 160 163 161 160 158 162 156 155 155 159 170 177 181 177 195 215 230 284 327 319 549 688 480 807 1059 667 503 679 636 392 356 398 497 490 446 462 381 453 476 532 529 616 730 659 816 892 958 889 560 810 975 1019 891 987 1075 1029 943 902 748 512 384 329 444 508 583 703 892 1113 993 755 816 760 745 857 818 895 900 900 819 872 872 995 920 1011 1016 975 980 1059 1299 1242 980 1224 1215 1129 1273 1178 1015 1029 1015 764 681 677 823 1164 1055 1050 1327 1410 1553 1525 1549 1304 1545 1304 1228 1020 795 821 871 1045 1292 993 869 833 826 829 788 606 578 678 735 747 747 735 715 696 672 647 599 549 563 553 547 535 526 508 505 495 483 469 483 505 479 428 432 436 430 426 445 439 423 388 385 392 421 413 408 414 409 405 407 390 386 382 374 368 363 356 352 347 336 338 340 341 343 346 349 349 352 351 350 352 350 411 343 343 345 343 510 518 437 373 471 444 379 511 683 694 703 842 896 689 786 691 801 881 682 858 1059 936 665 804 1124 1357 1145 1331 1299 1058 948 922 908 867 852 846 843 874 924 1008 964 872 766 898 1035 888 900 950 834 884 793
89 82 78 84 90 108 127 156 178 192 165 219 283 316 221 294 253 271 217 268 219 341 363 314 270 312 339 283 262 331 428 426 379 244 247 231 262 210 144 137 136 155 259 221 228 235 202 200 201 168 297 324 378 278 255 230 219 152 146 151 158 169 167 211 405 329 345 436 507 667 677 520 718 489 437 381 504 370 534 560 381 291 266 382 450 538 667 461 557 452 456 321 267 252 272 234 362 376 303 401 380 268 207 196 226 319 277 257 294 331 343 317 239 313 276 192 197 215 250 324 345 225 198 193 196 197 195 200 193 195 195 194 192 190 189 193 213 444 214 223 472 279 179 176 171 169 167 165 165 163 163 164 164 163 161 161 160 161 157 158 183 172 172 188 202 207 242 244 282 398 570 744 665 468 506 576 733 749 686 585 372 376 431 480 483 448 494 469 436 560 707 643 836 897 905 1007 1001 717 602 464 584 605 776 713 883 890 927 814 778 720 580 460 395 343 494 543 629 781 719 691 693 713 619 744 677 776 760 857 971 970 1006 1072 1077 1121 1149 1193 1317 1068 1436 1768 1198 990 1203 1539 1617 1718 1351 1725 1355 1127 773 693 942 1131 1253 1016 1074 1123 1357 1446 1305 1193 1054 994 917 933 931 872 900 938 945 1017 1174 943 741 713 684 650 602 627 604 660 677 675 660 637 617 603 579 574 572 570 571 560 551 537 529 518 506 491 480 487 505 509 452 456 503 503 493 520 470 397 395 458 451 439 430 440 428 426 421 412 405 401 395 388 382 373 366 359 352 345 340 342 345 347 346 351 352 354 354 357 354 403 545 499 467 499 345 357 548 549 529 607 453 501 414 700 809 700 688 695 962 1008 856 810 909 1106 1074 785 682 718 944 1000 1181 1050 1061 1043 971 968 928 943 883 905 891 922 1127 1112 1049 892 865 823 744 790 759 787 786 805 742 758
109 123 128 82 92 117 128 178 215 233 285 293 245 281 229 409 279 374 365 227 318 304 389 366 392 280 289 249 313 318 371 230 337 226 202 192 220 255 221 137 147 227 285 345 369 391 302 225 171 203 333 472 480 337 313 304 198 155 156 171 165 174 196 187 366 276 273 329 453 398 528 939 741 515 413 563 451 586 775 459 311 367 368 595 323 560 548 638 462 479 487 455 433 289 228 338 364 260 299 270 213 193 191 203 236 256 241 231 258 263 217 205 216 286 214 192 192 192 255 289 207 196 194 196 194 198 198 200 209 197 194 196 191 194 189 189 371 184 184 343 174 175 176 172 173 170 169 171 167 165 175 167 165 168 164 164 166 163 158 164 192 182 199 201 220 235 257 289 429 668 490 705 520 479 649 789 601 582 629 396 387 453 490 552 494 520 553 591 575 746 812 758 876 862 807 801 727 787 689 548 558 611 770 643 613 623 625 667 647 609 603 550 422 403 350 479 602 567 588 466 543 592 645 559 676 743 787 983 1159 1110 1279 1439 1433 1535 1358 1659 1680 1499 1432 1439 1338 1115 1548 2006 2051 1967 1378 1754 1360 1037 742 758 1101 1481 1618 1247 1121 1524 1711 1825 1681 1248 1252 1592 1302 1246 1139 956 980 1039 1040 943 883 824 714 679 651 640 624 640 672 693 695 679 655 640 622 619 605 600 594 597 634 611 579 552 543 524 511 499 494 500 509 536 475 495 529 518 479 409 407 406 485 486 472 455 460 455 446 439 459 429 422 418 410 401 391 383 376 368 361 357 355 355 348 348 350 353 356 358 358 360 358 356 353 457 633 555 501 445 472 499 505 574 715 474 626 567 581 646 785 660 897 962 1076 978 1016 908 792 767 559 757 699 971 1462 1092 1174 1252 1073 1056 977 914 963 984 1131 1112 1137 1106 1095 960 969 812 778 731 727 784 735 734 721 722
134 158 262 149 88 112 142 137 158 199 352 182 195 303 358 246 328 287 244 294 419 403 427 411 441 395 405 227 299 363 354 288 207 168 149 146 145 149 145 198 307 392 304 384 444 424 372 189 246 231 433 503 514 366 302 226 201 159 164 168 184 194 223 392 246 320 299 424 377 650 456 746 490 458 665 685 572 531 442 331 292 385 414 460 392 455 523 425 322 348 416 349 333 311 223 203 226 217 192 245 226 209 200 247 235 213 233 274 317 276 205 215 300 259 192 192 192 192 192 242 198 193 197 196 198 199 197 203 201 197 197 194 194 193 188 190 188 184 244 179 180 176 177 175 174 175 173 172 171 175 171 170 172 171 168 167 166 163 177 164 176 205 205 204 221 241 275 378 603 657 543 539 595 744 875 619 550 549 409 400 408 526 577 566 566 567 591 676 585 524 633 706 708 641 702 640 646 604 574 497 615 524 522 535 564 600 658 662 598 564 499 509 471 423 415 362 492 558 553 710 735 911 860 827 745 957 1024 1090 1232 1239 1323 1298 1526 1322 1256 1133 1165 1334 1652 1427 1436 1363 1382 1451 1359 1270 1096 1378 1298 893 755 788 1195 1444 1613 1584 1787 1414 1388 1731 1508 1262 1263 1506 1559 1398 1423 1209 1371 1090 950 872 789 744 714 689 671 653 635 670 713 694 718 756 692 676 667 671 644 646 614 670 661 637 607 591 558 540 533 534 534 537 530 547 538 544 559 477 420 420 418 492 468 536 488 492 490 488 462 480 454 447 440 434 422 413 405 393 385 376 369 363 363 363 362 363 353 358 358 361 362 364 361 415 458 477 460 425 601 647 581 472 473 460 543 491 716 745 891 806 983 891 940 894 962 873 629 713 604 519 564 672 842 981 1311 1209 1008 894 826 752 631 707 1097 1271 1334 1148 1154 1007 873 860 868 856 784 783 733 711 707 702 695 690
114 147 150 95 93 135 219 306 342 269 190 192 301 269 201 241 249 327 310 371 395 334 381 501 387 300 386 217 283 299 243 199 152 151 272 302 263 163 243 402 361 471 542 407 421 257 256 340 271 263 445 654 490 510 311 209 175 168 177 212 204 224 288 329 348 312 417 400 323 497 760 613 515 507 541 540 530 577 358 312 371 413 461 454 516 497 466 442 355 375 280 508 335 266 276 231 194 189 238 231 254 200 208 218 228 235 266 308 307 256 203 193 192 198 192 192 202 240 197 198 194 195 198 196 200 201 203 202 202 199 196 197 201 192 192 188 184 184 184 183 181 179 181 178 179 176 178 174 177 173 173 173 173 178 175 171 169 178 181 181 198 219 232 230 280 292 424 493 516 377 476 691 689 756 638 525 561 426 577 420 464 440 450 505 621 626 592 533 481 476 491 635 565 550 560 603 602 608 601 533 541 549 542 575 607 632 639 676 675 630 563 530 479 479 437 404 490 531 722 916 892 781 605 612 611 662 685 748 682 718 840 915 940 984 976 1120 1217 1410 1722 1476 1606 1645 1535 1723 2135 1795 1525 1291 1149 831 777 857 1142 1431 1621 1567 1842 1805 1889 1662 1382 1276 1557 1746 1529 1151 1008 1120 901 858 834 808 767 753 750 739 674 663 675 710 760 745 730 830 914 994 749 957 885 703 744 670 696 690 707 672 628 603 643 616 597 634 590 555 599 603 575 498 485 429 424 450 510 590 521 516 525 490 521 482 471 466 458 449 438 429 416 402 391 381 373 371 372 373 375 377 379 378 375 365 366 367 365 365 366 366 365 415 425 585 536 499 605 455 412 592 719 690 508 752 733 642 806 671 732 829 675 541 483 549 713 875 902 955 872 764 851 754 706 569 820 981 825 1053 1148 1100 955 936 888 857 805 768 748 738 727 710 698 695 691 688
137 109 117 118 98 184 159 344 284 151 248 228 155 168 214 238 298 317 380 413 419 368 309 484 397 327 225 212 181 339 186 159 240 310 396 321 243 149 256 226 363 401 460 531 397 338 428 291 274 278 568 402 445 417 342 228 174 184 194 251 252 281 327 646 401 352 495 333 442 515 721 644 554 784 672 733 580 442 392 310 473 374 463 480 517 442 398 297 393 292 384 214 223 247 184 185 187 203 253 236 204 240 243 240 229 282 351 293 282 222 225 198 194 195 195 194 197 199 198 199 198 198 199 201 200 202 203 205 201 201 202 196 223 196 193 191 189 188 184 185 186 184 184 185 183 183 183 180 178 178 179 182 182 177 177 176 175 177 176 180 181 192 213 240 294 312 375 482 582 722 801 785 638 700 692 475 443 451 459 436 452 461 473 480 499 501 560 591 558 541 520 521 561 562 583 573 581 573 568 554 596 606 589 631 648 678 714 743 750 704 698 715 576 523 489 446 383 496 522 507 511 514 682 946 789 1039 916 974 1275 1176 1120 1174 1111 936 1139 1436 1177 1074 1572 1716 1588 1425 1293 1551 1653 1799 1700 1592 802 782 953 1020 1374 1262 1079 1146 1284 1438 1640 1456 1273 1475 1559 1366 1350 1287 1059 902 1084 992 1053 993 831 771 742 763 711 986 843 779 922 790 768 850 907 825 904 1087 868 778 823 664 745 727 795 746 729 713 687 796 640 692 653 591 623 604 571 527 440 437 477 486 533 580 584 549 507 542 529 516 491 485 477 473 458 442 427 418 409 402 393 385 383 388 393 397 399 398 394 387 373 373 371 371 399 369 369 387 365 434 623 618 621 580 524 401 604 458 675 634 676 613 632 914 878 742 544 455 515 762 925 898 659 655 837 625 621 548 578 716 889 904 1236 1227 993 947 915 968 814 797 764 742 728 715 707 699 694 691 687 685
124 115 128 147 106 106 129 140 173 176 167 191 221 240 304 278 370 425 418 514 463 403 395 383 287 434 356 295 230 168 162 331 323 343 300 305 327 248 384 264 311 311 403 318 324 401 461 349 293 351 498 394 527 465 263 186 193 194 228 349 299 316 500 650 343 588 573 456 523 773 593 707 633 616 458 628 630 481 326 375 337 389 375 436 464 403 588 389 362 335 496 235 210 196 185 192 227 276 300 240 244 353 349 261 278 284 273 270 278 267 222 209 194 196 198 199 198 201 201 201 201 200 200 200 201 204 205 207 204 204 217 240 214 203 201 196 195 192 193 190 191 190 191 191 189 188 188 187 185 183 187 185 186 182 185 181 180 182 182 193 220 220 261 322 306 367 461 570 839 742 743 675 608 567 496 468 470 468 463 459 471 488 495 503 516 527 532 547 547 570 574 563 585 588 587 595 630 644 614 581 705 733 752 603 890 968 1063 1096 1018 904 779 615 597 567 544 575 440 500 532 580 854 674 782 982 994 1187 1320 936 1046 1271 1392 1549 1308 1501 1684 1542 1330 1112 1143 1647 1163 1143 1235 1291 1606 1285 936 824 837 992 1605 1059 1465 1573 1624 1873 1634 1627 1862 1896 1687 1765 1645 1540 1536 1113 984 1171 1238 1201 1115 1094 915 855 785 765 817 882 817 902 1040 869 795 806 868 1344 1638 1455 1402 933 917 683 740 792 849 766 750 733 752 735 647 727 618 668 666 622 569 515 448 489 497 541 596 637 589 534 529 527 550 576 514 505 516 547 553 696 825 572 520 453 415 399 398 405 413 420 423 422 417 406 392 385 377 374 371 408 600 652 561 570 688 654 686 587 449 437 394 403 425 426 450 631 754 719 634 459 430 644 763 1054 792 679 576 643 498 484 462 591 593 821 677 887 972 924 1031 977 920 919 991 936 774 731 714 706 699 694 691 689 687 687
125 147 168 151 109 176 191 179 205 163 190 289 279 325 289 302 337 425 396 432 379 358 381 211 256 360 228 170 167 171 172 193 248 273 247 201 177 157 157 320 263 209 367 454 410 300 435 470 303 285 255 294 323 311 229 195 202 223 246 291 320 555 548 566 587 541 733 464 544 561 885 501 565 498 563 428 381 345 410 365 336 427 382 448 340 279 353 383 322 215 187 183 184 205 226 312 320 245 214 259 322 405 475 278 290 285 292 280 252 237 235 217 196 195 200 202 204 203 204 203 201 203 203 204 205 213 230 209 209 314 259 226 205 204 203 200 198 198 197 197 197 197 199 198 197 195 196 194 196 191 196 192 193 194 194 192 190 198 207 225 240 281 325 330 385 562 757 788 761 772 695 636 609 496 528 479 493 491 484 482 505 502 517 535 530 546 553 572 581 609 584 591 589 639 706 778 837 784 627 586 858 844 702 621 757 809 885 895 777 731 682 714 770 866 889 557 405 714 809 638 760 806 1186 1323 1345 1440 1190 1298 1192 1305 1366 1539 1155 1106 1147 1213 1440 1296 1830 1390 1330 1180 1215 1069 892 861 871 1012 1182 1489 1580 1749 1823 1450 1581 1962 2056 2082 1871 1583 1675 1350 1172 1080 1023 1066 1317 1274 1415 1450 1379 1332 1238 1004 855 985 949 1081 940 963 1282 1162 842 769 945 1338 1519 1754 1512 1271 1221 808 709 803 948 873 791 877 810 791 787 733 652 704 708 599 566 457 459 511 522 618 699 664 629 562 557 546 565 604 542 542 590 671 1116 1196 1268 872 620 501 434 416 421 426 435 444 449 447 437 424 409 402 448 382 375 384 422 392 383 424 676 808 462 459 448 385 483 548 520 513 634 473 564 432 420 451 691 779 772 882 827 578 458 436 440 445 572 688 761 623 712 670 651 902 946 933 881 789 878 857 796 733 710 699 699 703 697 706 698 711
146 230 302 161 116 180 257 183 225 310 186 251 262 430 301 299 404 334 489 336 387 326 381 369 212 176 234 219 244 228 185 209 272 294 254 236 161 183 173 253 314 326 234 230 336 434 506 452 320 317 248 240 231 225 234 204 212 280 392 303 297 655 420 495 528 517 393 476 579 602 650 466 419 416 383 367 402 426 437 349 410 365 348 273 263 224 271 416 200 180 179 207 306 350 281 243 236 217 273 366 417 487 342 286 298 303 267 258 245 251 244 229 207 201 201 205 206 206 213 205 206 204 206 207 210 211 236 211 214 292 252 210 207 210 206 204 206 205 204 204 205 207 209 207 207 203 204 201 205 204 208 206 207 210 204 205 205 216 257 362 372 351 449 677 649 653 725 821 680 665 579 712 578 596 567 605 506 513 511 514 557 547 532 554 562 564 582 601 624 630 669 690 642 805 770 753 894 768 627 591 682 763 689 683 652 717 780 905 871 933 818 865 1062 1203 1253 922 755 491 920 963 1008 787 686 948 1056 1069 1175 1308 1163 1277 1264 1011 942 1167 1231 1140 1281 1529 1470 1669 1596 1558 1850 1628 993 856 1323 1888 1638 1694 1495 1813 1738 1863 1805 1839 1789 1379 1351 1286 1565 1438 1081 1528 1258 1168 1445 1651 1941 2039 1727 1516 1295 1337 1016 964 1267 1190 1057 1216 1287 1104 818 801 1043 1122 1234 1189 1228 1081 891 915 742 804 1021 945 890 995 953 938 930 771 692 740 675 566 533 469 471 537 648 820 751 730 619 597 587 578 626 631 577 695 897 1022 1085 1076 1125 1191 907 681 497 436 445 452 457 470 480 472 455 435 446 409 401 398 387 380 382 382 385 397 400 428 590 384 384 577 598 618 680 463 634 442 440 412 490 592 772 903 851 655 661 488 441 458 435 500 488 567 534 679 853 783 755 831 776 872 849 774 750 875 791 738 706 721 759 727 745 728 738 724
223 207 164 141 255 318 300 315 313 364 240 210 280 316 400 386 344 326 414 289 379 431 186 184 249 282 274 311 238 246 198 243 329 246 278 165 174 201 191 172 189 232 372 405 276 422 431 386 349 277 258 240 282 354 438 254 221 344 294 323 421 365 536 400 430 402 432 393 653 671 636 511 544 423 457 445 491 487 367 386 428 283 234 297 258 296 338 178 179 206 223 275 407 356 315 240 219 273 306 377 319 291 289 419 333 270 253 235 291 261 230 221 202 199 203 207 209 210 208 210 209 210 220 214 216 216 219 214 216 217 216 219 228 208 211 211 213 212 213 215 216 217 217 219 216 213 215 215 217 218 220 224 222 219 218 216 245 297 455 526 504 569 703 600 812 826 925 760 814 649 638 843 614 534 640 745 535 549 554 575 554 582 577 572 590 593 609 617 659 692 698 708 701 734 875 1000 869 725 610 671 680 761 766 786 750 680 857 990 1118 1093 1053 1306 1130 1584 1375 1267 1183 645 686 1034 1154 1078 1145 992 685 819 946 813 801 829 856 955 1213 1483 1685 1489 1402 1091 1078 1139 1310 1218 1152 1082 1129 876 1028 1206 1257 1631 1548 1715 1805 1438 1770 1424 1795 2012 1947 1992 1812 1513 1125 1644 1448 1601 1687 1839 1749 1710 1529 1334 1258 1206 1362 1118 1441 1342 1525 1332 1455 891 798 836 1325 1690 1391 1141 1069 1110 1085 1103 856 759 831 1037 1056 1073 1114 950 991 763 736 761 659 573 545 478 482 605 838 958 822 865 706 648 624 660 698 667 738 1188 1370 1458 1312 1459 1245 1277 1359 1133 825 544 496 490 496 527 516 481 467 521 517 480 433 425 412 406 384 391 438 388 384 384 384 384 438 557 744 629 539 461 420 408 408 449 640 842 832 756 648 497 544 619 482 432 452 439 442 449 456 744 800 904 1012 773 696 773 822 812 765 737 724 723 773 786 924 793 795 810 771 710
275 277 224 190 136 186 199 354 287 275 292 351 326 423 367 256 225 281 295 370 214 210 375 413 396 284 354 297 213 257 314 275 277 239 171 175 194 203 203 184 188 210 221 226 243 253 303 325 425 558 398 317 368 438 264 336 249 256 352 447 277 361 355 333 371 411 475 545 497 616 566 463 432 490 503 479 437 351 329 372 307 210 226 233 304 187 175 178 250 220 257 423 459 296 247 228 296 321 461 311 279 480 300 269 263 262 247 236 218 225 227 210 210 207 216 214 213 215 216 221 218 225 232 225 222 221 220 219 220 225 222 237 219 220 225 225 229 229 230 231 233 235 237 235 236 232 232 235 240 244 248 248 250 242 237 313 410 487 548 529 423 481 567 603 641 836 1022 1197 947 1029 805 972 821 628 550 606 574 637 699 644 646 631 644 652 696 698 652 652 750 843 856 847 777 799 813 867 968 1090 879 1251 1047 916 1334 1355 1404 1141 1037 1339 1378 1579 1708 1580 1678 1499 1194 1056 1079 609 604 983 1295 1006 935 1214 1132 1050 984 1011 1062 1125 904 920 1238 1220 1372 1328 1101 978 1278 1018 1114 1422 1435 1108 1022 1502 1370 955 942 956 996 1083 1089 1057 1059 1161 1314 1343 1410 1533 1540 1525 1239 1859 1987 2265 2330 2022 2063 2181 1649 1501 1709 1465 1258 1145 1120 988 877 875 859 889 925 1126 1054 1160 1248 1213 1243 1160 1182 954 931 1014 885 1029 1075 1024 1025 994 969 762 742 799 692 585 537 493 495 537 668 797 735 754 735 690 893 907 759 761 751 836 1385 1326 1179 1341 1457 1604 1422 1417 922 940 614 564 631 603 589 586 623 578 554 490 518 518 515 511 473 462 392 397 391 386 408 397 558 648 625 436 424 548 406 539 430 437 485 591 554 685 561 465 423 423 427 466 548 459 649 673 617 505 602 543 512 526 548 604 743 826 884 744 788 905 1049 1031 894 815 795 763 759 758
375 391 283 206 209 373 321 276 222 295 331 312 476 346 288 251 253 254 199 209 238 254 318 334 420 362 295 237 249 316 405 349 216 175 174 196 245 295 252 204 221 212 360 315 363 264 350 491 735 524 397 368 323 314 576 507 327 297 298 320 494 674 600 396 389 528 550 607 633 614 476 434 458 606 466 352 363 270 260 230 207 193 234 193 185 174 172 185 196 216 306 490 511 315 254 229 231 361 265 245 291 341 304 269 247 248 239 234 224 228 220 228 213 213 218 220 223 216 231 231 231 235 228 225 224 223 223 224 227 235 237 228 226 227 232 236 237 241 242 244 245 248 249 250 249 244 243 251 257 264 267 270 284 290 247 371 485 432 367 482 442 699 536 485 623 824 1271 1003 890 1086 1045 917 831 699 571 627 641 584 650 725 720 709 702 763 800 878 805 646 787 1014 1005 896 751 964 1039 1213 1125 1002 695 900 798 770 857 967 902 846 808 915 973 1031 1066 1034 947 871 788 775 651 542 483 567 741 648 835 904 927 1154 1336 1056 1117 1155 1106 776 927 1129 1139 1143 905 959 1198 1029 1207 1336 1272 1291 1311 1261 1399 1183 1665 1381 1061 1312 1675 1607 1151 1435 1336 1171 1716 1489 1906 1777 1307 1718 1720 2032 1865 1924 1570 1616 1566 1492 1355 1070 1033 955 962 979 1090 1145 1441 1212 1381 1355 1399 1217 1354 1375 1381 1154 956 940 1222 1121 934 965 1246 1017 1011 888 1071 985 835 851 733 592 567 571 506 510 545 694 757 807 756 844 894 758 1006 835 919 1194 1141 1126 1170 1245 1347 1408 1232 1351 1303 1022 853 793 657 547 625 626 625 547 529 932 808 576 468 499 512 495 445 398 537 427 425 403 404 473 463 656 653 409 408 463 599 418 489 519 445 417 420 421 436 458 602 538 549 529 752 767 643 707 807 744 541 884 855 641 878 824 723 742 848 842 1003 993 959 1128 990 924 903 852
359 294 198 208 175 160 214 259 283 289 432 411 387 428 280 304 205 208 238 339 364 343 332 401 335 297 325 318 326 356 320 319 195 186 215 213 288 249 229 209 228 223 477 267 359 366 334 377 564 419 445 564 384 430 384 262 330 379 307 376 603 549 630 620 511 669 438 555 543 466 368 450 344 402 369 351 223 237 217 205 186 168 171 173 171 174 184 195 203 220 336 524 411 265 234 249 234 241 231 233 244 256 313 253 240 247 243 237 229 238 227 238 233 239 230 229 241 222 236 237 237 231 229 228 227 229 227 237 243 241 239 233 234 236 240 245 248 253 256 257 259 261 262 264 262 258 257 265 278 283 290 295 321 321 370 413 401 399 475 559 573 674 842 825 1073 1151 1044 823 750 729 950 817 630 625 642 714 704 652 616 678 751 800 822 883 905 917 850 884 881 843 943 1103 1118 985 1273 1197 882 725 740 817 767 822 894 903 880 834 849 842 869 897 908 891 921 905 766 842 735 675 587 490 569 790 1087 985 1316 1177 970 980 894 899 777 680 695 742 770 730 985 1148 1297 1382 1445 1376 1416 1524 1628 1414 1387 1289 1657 1492 1082 1327 1778 1790 1237 1753 1934 1389 1273 1838 1922 2064 1737 1681 2408 2436 2513 1867 2184 1920 1822 1791 1220 1165 1631 1546 1279 1910 1782 2033 1329 1465 1414 1388 1630 1387 1345 1278 1209 1152 1140 1316 1265 1232 970 985 1295 1130 1086 1001 1163 1071 1057 881 858 655 576 612 536 522 532 656 823 802 832 1012 765 840 912 897 879 910 1039 1353 1429 1763 1733 1582 1452 1526 1397 1272 1229 1017 579 625 736 786 628 562 904 1043 1078 646 467 457 445 442 471 410 403 401 401 401 398 404 405 405 457 406 408 409 410 412 412 415 415 418 418 515 494 543 557 640 839 580 800 986 927 786 806 716 727 890 919 767 768 659 774 800 858 712 763 979 1009 896 847 800 756 774
307 230 213 213 270 227 193 269 274 254 413 294 290 281 249 210 217 276 281 355 316 377 307 284 277 420 319 440 299 222 185 196 208 197 259 237 350 264 220 209 239 296 336 559 588 637 447 461 448 432 724 438 372 354 395 278 453 550 497 422 480 522 580 429 463 476 442 444 425 300 355 368 328 341 263 257 199 209 191 238 170 174 177 181 182 193 189 210 209 243 341 478 301 237 232 269 250 288 283 257 240 238 246 241 248 244 243 241 243 246 243 240 239 244 246 245 241 242 249 240 234 233 233 229 231 235 240 243 247 242 239 242 241 245 248 253 259 263 269 270 273 276 277 279 276 272 289 281 295 310 314 315 382 314 381 366 411 383 572 516 744 760 929 952 1352 1110 863 780 785 705 731 876 600 793 621 662 784 731 687 648 702 841 964 928 1044 1129 1154 1010 1034 1027 1155 1182 924 1169 1037 896 764 759 806 807 816 828 867 1057 948 882 894 865 924 960 959 1014 1143 1365 1071 851 821 577 749 573 574 517 646 677 775 796 792 727 678 639 599 608 617 639 662 697 845 1047 1137 1309 1196 1117 1249 1181 1305 1402 1496 1419 1503 1329 1336 1742 1716 1840 1490 2117 1783 1993 1894 1483 1891 2012 1954 1766 1992 2245 2020 2118 1904 1852 1876 1557 1298 1397 1762 1816 1989 2309 2198 2486 1508 2287 2294 1895 1523 1512 1679 1434 1313 1426 1467 1570 1220 1112 1118 1072 1182 1301 1294 1246 1276 1287 1196 930 881 819 605 551 546 535 562 650 828 865 880 828 783 822 966 1031 973 907 899 1140 1251 1331 1722 1435 1122 1165 1214 1065 763 602 662 861 867 1025 605 649 1097 1128 1209 508 480 633 531 490 444 426 413 406 406 411 410 417 433 473 560 558 429 427 436 413 414 417 417 424 418 422 422 511 452 687 702 764 585 739 724 769 816 852 858 901 856 721 683 657 726 783 664 708 614 665 697 767 748 736 734 734
313 322 208 352 208 298 184 225 223 267 375 329 261 223 216 238 285 405 278 360 311 252 259 272 289 475 277 267 210 189 197 207 217 207 339 282 318 237 243 219 228 354 522 276 396 302 314 337 361 439 463 439 482 426 339 455 479 541 691 519 778 665 524 411 494 372 380 475 370 350 335 272 276 228 369 213 195 193 168 171 173 175 180 188 207 266 230 232 258 389 512 292 247 242 250 285 292 284 283 278 277 266 252 257 249 242 251 244 251 249 249 247 254 250 246 255 244 243 242 241 239 242 239 236 239 239 248 252 251 244 245 247 250 253 257 262 268 275 279 283 288 291 292 293 291 308 309 294 311 329 339 334 425 350 453 349 482 349 389 493 525 770 878 990 1405 1233 829 987 1131 994 680 687 649 800 686 661 742 811 731 674 682 783 1083 1230 1215 1453 1513 984 744 1037 1189 1052 1233 1035 1004 887 919 794 913 1033 926 817 846 932 960 964 1291 900 1408 1201 1204 1101 1064 1151 1376 1105 810 792 617 819 570 579 574 580 612 571 584 585 599 623 686 758 800 780 654 637 714 847 1462 1314 1050 1017 1143 1281 1172 1241 1440 1750 1666 1524 1403 1570 1999 2263 2042 1934 1758 1833 1977 1748 2057 2050 1897 2092 2100 2179 2142 1843 1664 1568 1484 1425 1679 1400 1489 1773 1629 1890 2243 2824 2036 2804 2666 1649 1878 2216 1686 1478 1547 1797 1834 1438 1599 1402 1178 1160 1197 1422 1362 1307 1393 1466 1149 1073 942 930 759 601 587 566 546 587 809 915 1049 996 819 817 852 1074 1019 1043 1059 1058 1083 1167 1234 1627 1477 952 675 646 649 918 1294 1135 1000 878 631 707 1195 1292 846 504 710 864 612 475 456 459 506 632 659 714 575 603 567 443 552 529 539 632 509 442 463 546 420 421 422 434 424 426 442 493 486 491 620 704 729 780 974 810 701 665 931 739 598 635 676 662 584 566 633 675 763 798 774 801 737 721
305 345 331 317 282 263 216 361 341 296 268 235 224 231 226 297 386 366 393 306 256 231 297 367 238 295 202 195 207 204 219 226 251 237 343 401 310 255 249 234 255 252 465 459 302 319 329 351 409 482 547 866 873 665 345 649 388 617 470 575 790 630 694 609 504 390 282 424 273 249 268 300 209 351 263 184 177 169 170 170 176 176 185 209 239 203 238 245 328 434 423 266 257 258 277 300 297 294 289 278 266 263 256 251 249 249 251 251 255 253 257 255 258 259 254 256 252 249 246 243 244 245 242 243 245 246 247 254 259 250 253 261 256 257 266 272 278 285 290 299 301 305 307 309 306 329 305 348 347 392 385 358 449 387 488 356 518 495 575 537 610 522 705 711 1177 1143 1070 1088 810 1075 804 668 922 818 733 674 703 772 836 771 709 750 1070 1632 1656 1693 1210 941 790 1097 1145 1157 1103 1095 1341 1262 1036 805 897 1080 975 850 867 927 1152 1086 1217 1032 1041 1345 1269 1182 1114 1139 1173 1021 810 1046 692 727 578 646 618 616 653 629 665 678 806 995 1140 1121 1069 1058 989 765 648 671 751 938 1014 1439 1224 1476 1329 1669 1449 1334 1714 1753 1660 1903 1604 1571 1901 2334 1477 1785 1920 2103 1898 1658 1720 1830 2018 2368 2635 2257 2050 2413 1982 2627 2515 1771 1545 1614 2177 2215 1967 2136 2861 2095 1941 1827 2093 2910 2213 1825 2461 3043 2515 2424 2057 1418 1228 1214 1320 1581 1594 1499 1536 1244 1169 1107 1038 983 970 760 592 559 564 587 826 973 1010 1072 1082 958 854 920 1168 1180 1270 1324 1422 1458 1559 1223 860 695 681 1186 1325 1019 1414 1213 970 981 724 658 843 1264 575 731 1107 1455 1287 1127 685 655 948 886 772 854 703 578 634 544 536 630 492 655 595 673 591 620 525 439 436 434 427 429 430 430 437 461 471 475 577 799 664 698 690 571 599 575 540 534 546 536 546 649 661 685 894 872 837 750 732 780
348 329 415 302 311 255 323 413 341 289 239 232 256 301 318 276 378 337 291 242 289 312 217 309 201 209 207 223 224 244 269 260 260 243 247 342 277 270 243 254 278 268 275 309 385 329 339 380 609 717 777 720 532 444 374 521 501 340 493 616 649 554 870 525 714 371 277 359 300 274 227 217 193 194 182 214 173 166 169 171 178 194 218 217 203 208 205 258 416 488 329 264 264 281 310 309 300 289 276 267 256 256 251 247 248 249 254 255 260 262 261 262 261 263 254 256 253 247 246 244 250 254 249 250 252 254 257 258 266 259 261 260 264 272 273 280 287 293 303 310 315 320 323 323 322 346 382 395 410 376 423 382 410 409 440 455 652 568 638 825 795 854 971 1149 873 1241 1302 1082 1085 894 740 1074 985 900 861 701 790 752 900 1311 990 780 957 1316 1376 1390 1031 987 1014 902 947 1137 1449 1437 1274 980 918 851 877 1092 1061 906 853 980 1337 1229 1348 1061 1136 1240 1172 1022 1055 1232 856 1108 1285 1038 675 892 845 584 641 710 738 762 821 877 727 881 913 1271 1411 1312 1148 1083 819 688 678 735 899 1052 1192 1271 1394 1582 1258 1492 1897 1522 1734 2136 1238 1749 1660 1589 1381 1896 1821 2067 1488 1578 1831 2686 1971 2081 1808 2541 3053 2388 2916 3554 2647 2133 2385 1804 1732 2295 2131 2182 2508 2637 2632 2097 2585 3526 2724 2877 2726 2650 2210 2090 2334 1962 1329 1357 1537 1614 1825 1829 1566 1552 1452 1294 1191 1112 834 941 739 570 573 624 864 923 1219 1311 1028 1115 1170 1012 1008 1316 1436 1531 1680 1674 1190 853 727 740 1345 1682 1263 1464 1448 1407 1366 972 1099 659 690 1280 547 951 1390 1415 1270 1406 1370 823 1170 1047 796 843 778 672 755 520 615 695 773 741 751 791 519 699 505 548 455 452 439 430 451 434 435 448 446 572 556 564 563 544 532 516 513 529 563 521 560 627 640 597 658 857 772 758 753 776 885 773
217 289 386 315 310 283 268 264 299 240 251 290 257 345 308 250 284 294 269 261 281 262 218 222 228 258 253 244 259 274 347 321 284 278 277 339 267 286 259 267 270 295 301 325 346 381 349 393 519 891 814 774 468 426 699 738 635 640 489 467 537 771 634 517 560 419 288 302 317 213 249 225 199 183 182 227 186 167 165 177 260 206 180 179 182 185 190 199 218 254 294 269 304 300 311 307 293 278 272 260 253 252 247 250 249 259 255 259 263 261 262 266 259 260 253 255 245 250 248 251 255 255 254 261 260 262 273 270 270 274 279 273 274 276 283 284 295 303 314 320 328 333 338 339 360 366 421 413 481 391 472 409 426 474 528 468 522 473 550 581 611 625 810 853 1175 958 1077 985 866 734 1063 930 1064 1022 985 762 929 847 818 1151 1263 834 881 1245 1446 1106 1051 885 1001 1003 1136 1269 1259 1077 1066 1285 1178 905 859 1047 1485 1106 892 994 1364 1397 1185 1066 1068 1130 1488 1272 1597 1054 1223 1368 1508 1244 743 907 812 659 676 822 921 932 813 1136 1123 1060 873 846 881 931 1262 1369 1323 942 755 675 684 747 770 772 830 957 1031 1309 1222 1194 1360 1467 1171 1248 1135 1173 1209 1240 1273 1266 1689 1580 1495 1605 1628 1696 2136 2329 2084 2015 2185 2332 2148 2038 1932 2000 2848 2147 2189 2154 2355 2332 2474 2559 2826 3756 2163 2042 1936 1822 1751 1683 1551 1509 1473 1901 1479 1675 1977 2110 1810 1442 1624 1427 1354 1164 1039 1154 822 583 587 627 835 1223 1227 1254 1328 1436 948 1254 1361 1212 1601 1656 1435 1029 894 1003 759 1274 1369 1659 1692 1987 2062 1561 1053 1339 1209 897 688 842 570 1181 951 1052 1223 1330 1347 1300 1187 1005 1005 879 791 675 694 571 578 649 864 1071 1017 668 530 567 485 471 478 480 466 451 438 435 435 444 505 501 540 597 725 619 526 509 508 511 516 572 681 823 716 784 767 826 780 819 863 885 968 897
268 272 300 317 329 303 285 275 351 250 264 291 277 265 288 268 309 350 345 289 225 288 214 231 250 281 263 261 277 327 353 302 299 295 300 337 289 278 281 291 302 293 329 337 365 395 356 484 504 753 628 519 397 571 577 729 676 1045 460 709 534 657 759 569 382 457 345 317 278 239 197 198 187 185 176 173 167 166 167 177 242 181 176 176 187 181 191 231 255 393 343 285 318 311 317 292 281 269 265 257 246 251 247 251 253 257 260 263 267 263 266 261 254 257 257 254 247 250 255 253 257 258 259 272 264 265 277 273 278 287 272 278 278 282 287 290 299 305 316 324 332 342 345 347 374 378 429 433 451 399 488 464 434 510 522 539 633 651 863 746 843 812 1006 1097 1174 1090 923 902 773 920 879 857 974 1230 1046 779 1095 879 862 1145 1244 1136 790 1016 1096 991 903 891 979 1180 1323 1435 1174 1198 1103 1057 934 1033 884 1133 1536 1136 971 902 1070 1360 1218 1219 1190 1182 1271 1563 1390 1389 1550 1387 1276 809 789 731 576 660 750 1145 1186 1006 826 1181 1376 1213 928 1050 943 893 939 1616 1637 990 1024 748 695 692 702 712 720 767 883 911 820 833 912 1023 1168 1088 1122 1172 1218 1248 1291 1320 1383 1459 1519 1565 1669 1852 2099 1886 1959 2319 1890 1833 1850 1822 1885 1858 2346 2003 1942 2621 2609 2029 2942 2539 2589 3437 2888 2167 2370 1872 2317 1806 1565 1754 1746 2085 1596 1568 2045 2008 1601 1404 1298 1228 1106 958 1326 1245 894 589 594 651 982 1152 1295 1422 1514 1587 971 1400 1789 1295 1685 1789 1266 880 1261 861 814 1620 1638 1741 2075 1777 1847 1241 1140 1427 1241 985 701 687 581 869 903 1039 1190 1344 1287 1199 1146 1161 1004 991 811 707 797 763 600 761 962 1024 837 808 665 724 573 524 489 488 475 464 451 438 435 541 655 493 475 654 726 582 501 506 514 521 526 525 601 671 688 767 711 827 796 868 884 1010 952 822
378 556 352 395 365 328 314 312 253 276 311 328 293 274 297 251 248 304 280 231 217 213 226 240 254 328 293 296 283 279 378 324 321 308 316 312 313 275 278 343 383 405 359 392 420 418 383 501 506 492 536 506 487 646 580 586 537 478 468 492 717 609 412 432 337 414 379 314 216 210 210 203 183 175 169 167 165 167 169 170 171 174 173 176 182 191 210 386 568 709 329 290 322 310 287 276 266 260 253 248 245 252 251 259 256 262 264 266 266 268 266 260 256 261 265 257 255 264 277 259 258 267 265 268 273 275 290 289 293 288 288 291 293 292 300 300 304 312 325 330 344 349 360 363 392 398 431 440 472 483 509 511 453 556 634 793 749 802 944 1174 975 1187 1068 1056 1082 869 977 816 1083 1086 1060 1105 1171 1138 873 975 1172 832 958 1281 1397 1045 919 836 1223 1124 1024 1073 909 1013 1133 1305 1575 1654 1399 1125 1254 1464 913 1134 1348 1739 1086 925 956 1169 1295 1390 1484 1661 1668 1327 1278 1445 1206 823 903 1020 1199 779 659 681 978 1307 1225 1390 920 1026 1494 1412 1021 1404 1185 1531 1151 930 1537 1092 1433 1357 882 991 1103 1094 1077 822 759 908 1057 1139 1048 929 988 1220 1363 1828 2010 1979 1593 2159 2394 2111 2074 2125 2411 1995 1844 1691 1527 1659 1877 1798 1643 1656 1819 1951 2115 1653 1860 2171 2288 1841 2162 2504 2116 2121 2408 2915 2369 2851 2187 1963 1949 2241 3226 3355 2124 2270 3013 1741 1885 1518 1312 1269 1303 1392 1571 1439 955 645 606 661 946 1003 1481 1562 1904 1191 1329 1626 1488 1657 1431 1070 1111 1388 1763 913 989 1440 1464 1779 1867 1490 1466 1520 1918 1913 1462 1020 804 641 607 832 1072 1096 1346 1293 1285 1441 1390 1121 1205 992 827 893 1204 1288 903 952 987 855 887 709 552 542 555 519 520 512 498 476 462 442 439 440 439 494 603 780 625 562 500 501 545 539 641 728 547 686 664 731 910 817 864 1112 1109 952 883 907
520 708 621 430 368 344 299 265 279 307 388 332 330 343 335 365 250 251 248 243 240 222 233 246 302 295 315 336 345 363 407 389 357 357 367 307 335 302 295 389 434 392 567 643 557 520 453 598 534 667 859 1041 624 621 472 556 521 778 700 441 455 553 388 379 311 416 315 264 217 200 204 189 172 167 166 165 165 167 170 169 174 174 173 175 190 214 407 394 504 622 352 310 289 278 269 261 256 250 248 250 252 254 252 257 259 260 267 261 260 259 259 269 300 263 263 266 264 263 260 301 293 272 277 276 282 284 296 312 304 310 302 310 307 318 310 312 315 319 329 363 390 368 379 378 409 414 441 494 500 480 504 556 528 650 932 1033 1008 981 926 971 1037 852 1193 838 803 985 913 972 909 999 1124 1003 1010 1008 863 952 1047 965 1044 1198 1425 1149 863 877 1122 1122 1215 1229 1030 964 1038 958 1110 1188 1283 1101 1282 976 980 1365 1151 1520 1592 1119 914 1150 1355 1463 1500 1709 1421 1111 927 1054 1202 1207 1058 1268 1276 960 592 800 954 1201 1320 1243 1042 890 1114 1414 1372 1025 1512 1663 1698 1152 1040 1367 1684 1060 941 1170 1457 1401 1658 1565 1509 936 1508 1967 1898 1810 1279 1776 2347 1902 2146 2151 1962 2166 2295 2001 1839 2103 2226 2032 1828 1425 1514 2026 1680 1526 1563 1891 2218 2209 1869 1849 1420 2076 1479 1768 1943 2388 1840 2402 2582 2869 3356 3025 2858 2566 2321 3307 3027 3007 2481 3379 2311 2330 2469 1587 1609 2036 1545 1382 1188 1444 1059 687 642 627 879 1331 1770 1708 1636 1095 1546 2168 1643 1880 1790 1087 1668 2364 1711 985 1483 1742 1871 2202 2057 2299 2174 2364 2263 1910 1560 1191 764 742 625 663 961 988 1320 1432 1491 1520 1294 1529 1345 1146 1218 1217 1132 1037 873 839 904 1008 874 669 597 563 574 588 571 530 507 596 456 448 445 445 467 740 645 657 534 546 521 498 506 534 585 601 660 617 814 893 849 856 935 1043 1148 1210 1080 1129
552 837 681 440 365 327 277 279 309 356 410 384 308 403 345 290 296 265 264 311 274 223 239 294 285 333 419 466 548 708 553 575 451 403 467 379 339 328 322 405 420 644 531 677 780 755 613 543 465 552 931 932 669 538 530 564 777 509 537 570 443 378 423 279 410 451 352 227 195 186 183 170 167 165 165 166 164 173 171 175 175 175 176 177 182 364 542 618 618 538 266 307 259 261 249 251 246 246 248 250 250 252 258 259 258 264 261 262 264 273 299 308 289 269 283 291 287 276 288 309 298 323 285 288 291 295 296 313 319 337 316 320 328 336 326 329 332 370 330 368 382 396 444 389 409 447 486 498 531 540 566 625 707 682 645 612 820 1038 1141 756 903 969 865 728 700 728 778 825 957 988 1043 1126 1000 897 915 1250 974 1019 1463 1273 1257 1154 949 945 1380 1704 1567 1354 1082 1124 968 958 1081 1365 1370 1178 1147 967 1182 1263 1561 1208 1842 1483 1000 1032 1596 1700 1517 1189 1412 1316 1313 1110 1579 999 1216 1555 1551 1479 782 607 1432 921 1256 1199 1665 1234 977 1203 1078 1662 1140 1613 1246 1233 1455 1239 1577 981 1597 1039 1027 1249 1515 1584 1554 1450 1117 1292 1845 1795 1758 1586 1894 1813 1442 1505 1723 1912 1763 1748 1567 1733 1983 1322 1279 1316 1350 1406 1449 1474 1679 1857 1538 1579 1391 1709 1346 1320 1619 2072 2263 1868 1669 1999 2419 2200 2462 2195 2937 2869 3136 2397 3239 2840 3059 2859 2644 2222 1634 2122 1791 1367 1250 1394 1000 1045 1100 874 645 637 801 1241 1674 2145 1441 1408 1385 1983 2304 1774 1299 1581 2307 2420 2374 1102 1292 2303 2137 2626 2479 2123 2028 2068 1789 1791 1291 1166 1258 839 898 651 902 1171 1307 1328 1711 1704 1490 1593 1314 1530 1239 1128 1086 1076 916 807 734 886 920 751 598 616 661 554 550 665 646 593 536 477 448 446 546 897 746 658 564 540 512 500 526 595 595 619 732 673 807 891 676 951 1059 1017 1185 1091 1031 926
915 828 415 405 330 490 278 318 474 519 497 448 320 497 423 394 294 321 275 386 273 251 245 264 321 441 429 663 811 786 924 1054 847 482 548 426 371 351 398 353 448 726 487 794 920 906 749 498 550 434 522 535 506 558 629 556 725 570 525 408 572 324 294 270 366 297 234 214 219 190 199 173 163 162 160 164 170 168 172 173 188 178 178 178 180 266 519 681 804 371 247 248 237 239 237 236 241 241 243 248 249 252 257 254 257 260 260 265 294 328 306 276 278 293 286 295 304 283 272 299 304 317 314 309 300 303 306 323 326 328 332 337 341 340 365 346 351 388 381 404 420 463 470 493 402 468 545 586 640 630 828 880 955 691 657 560 566 712 659 598 622 631 648 707 760 792 792 846 958 942 1001 1110 1009 976 1134 1370 1111 983 1177 1235 1547 1574 1207 927 1028 1104 1098 1071 1065 1053 1027 1198 1007 1100 1279 1298 1247 988 1560 1641 1681 1421 1806 1548 1044 952 1002 1233 1396 1582 1569 1338 1418 1429 1348 1352 1459 1966 1230 1151 642 677 1319 1179 1242 1381 1551 1353 1198 1312 1676 1353 1584 1788 1597 1513 1211 1492 1598 1794 1385 1337 1610 1508 1478 1382 1323 1610 1821 1915 1890 1682 1446 1582 1427 1271 1582 1670 1667 1648 1338 1237 1320 1262 1163 1232 1256 1281 1342 1456 1715 1500 1483 1373 1430 1109 1083 1109 1163 1199 1268 1317 1395 1377 1510 1594 1735 2016 2276 1996 2749 2060 2334 2123 2469 1984 2097 1688 2326 2264 2530 2097 1666 2191 1605 1633 1576 1272 1093 977 672 655 787 1243 1559 1461 1563 1532 1657 2220 1740 1643 1740 2297 2268 2044 1638 1361 1591 1879 2303 2298 1948 1694 1412 1431 1398 1224 1669 1069 901 1787 1097 674 935 1265 1231 1432 1797 2195 2102 1804 1557 1349 1568 1384 1144 1090 923 797 736 682 667 663 761 716 622 577 552 544 550 559 566 528 454 450 803 886 1010 1005 909 771 552 637 764 703 505 620 608 645 716 695 546 626 884 985 1035 874 916 826
678 456 350 380 325 288 335 380 441 509 607 448 346 468 538 323 335 284 340 342 291 302 240 264 345 351 480 771 906 763 871 590 752 675 560 434 368 366 430 399 525 412 492 693 676 733 732 477 436 406 397 474 602 630 549 787 809 683 566 520 578 480 376 515 344 265 223 203 201 198 183 165 160 166 162 169 172 175 177 187 213 215 180 181 181 252 467 482 393 270 261 225 226 227 227 234 239 242 235 237 242 244 250 252 262 263 290 290 289 313 284 282 283 292 296 297 299 303 313 287 317 312 327 316 326 311 317 325 337 345 345 350 366 362 357 365 369 392 414 433 476 536 564 573 544 459 653 642 757 801 829 1117 831 746 831 732 686 626 826 780 823 775 809 749 771 875 893 883 949 1034 975 1055 1033 983 1060 1227 1068 1111 1472 1724 1254 1088 987 975 1298 1012 1448 1194 1159 1196 1172 1190 1319 1342 1089 1398 1565 1154 1097 1539 1899 1481 1248 1143 1144 1375 1087 1510 1487 1440 1412 1245 1050 1311 1408 1462 1211 1100 998 979 615 1004 1097 1380 1632 1614 1636 1532 1557 1696 1416 1493 1362 1571 1241 1446 1254 1337 1565 1473 1031 1598 1585 1256 1083 1548 1499 1198 1489 1310 1290 1103 973 1209 1149 1042 1139 1535 1643 1233 980 1397 1138 1145 1174 1621 1494 1791 1633 1794 1660 1722 1496 1148 1016 966 1114 1684 1592 1652 1677 1644 1932 1539 2076 1802 1724 1784 1853 1812 1834 1957 1740 1703 1725 1589 1656 1473 1890 1811 1634 2069 2292 1838 1955 2046 1588 1062 720 714 693 669 847 1173 1601 1769 1659 1495 2123 2347 2018 1895 2331 2320 2040 1953 2041 1587 1601 2678 2113 2536 2360 2193 2009 1748 1066 1342 1450 1670 1688 1676 841 705 851 1005 1475 1659 1649 2189 2488 1850 1873 1762 1448 1589 1450 1349 1146 940 975 842 718 629 628 570 541 573 562 527 489 486 474 467 459 589 766 1010 781 778 954 868 592 665 658 506 469 469 556 611 539 489 525 707 617 596 773 773 835 887
