ncols        785
nrows        28
xllcorner    -156.003330000000
yllcorner    58.996670000000
dx           0.016258325000
dy           0.010011100000
NODATA_value -32768
115 114 113 137 248 198 164 210 155 142 123 117 114 113 112 108 107 107 106 105 100 102 106 107 126 167 145 240 232 129 178 159 106 104 103 106 106 106 106 106 161 166 209 132 108 107 109 109 108 108 113 110 110 111 111 112 112 111 111 112 111 111 112 111 112 112 112 112 114 116 117 117 118 118 123 118 118 119 121 120 123 121 122 125 123 124 126 125 125 127 132 131 135 130 129 131 129 131 132 133 133 134 136 138 138 137 138 140 142 142 144 145 146 146 150 157 153 155 155 159 162 163 160 161 164 166 167 169 172 174 177 175 179 184 183 188 188 193 197 199 200 204 205 210 212 218 218 226 228 236 238 243 248 252 256 260 265 269 273 277 283 286 288 350 355 334 331 323 322 326 330 335 338 343 346 350 351 353 361 389 463 383 369 373 389 395 403 408 415 422 429 436 445 452 460 470 477 482 489 495 498 501 506 514 528 541 552 579 602 622 615 591 562 559 564 565 593 636 613 641 625 609 608 594 603 609 618 624 639 640 669 655 663 673 679 689 732 704 714 725 734 743 753 807 891 975 1249 1164 1224 1394 1618 1396 1565 1967 2033 1890 1720 1692 1566 1389 1632 1669 1798 1680 1569 1639 2060 1674 1555 1548 1672 2115 2441 3012 2549 2721 3048 2805 2959 3330 2796 3224 3017 3296 3046 2647 2193 2411 2252 2130 2031 2055 2034 2358 2971 2552 2477 2969 3499 3123 2782 3063 2985 2775 2633 2543 2432 2327 2319 2331 2103 2049 2046 1915 1853 1825 1698 1667 1640 1610 1585 1581 1568 1602 1962 2089 2259 1752 1631 1619 1510 1438 1401 1340 1298 1244 1210 1166 1130 1097 1036 1000 942 899 861 822 790 740 718 830 781 988 1224 1393 1506 1346 1193 950 1242 1498 1279 963 654 686 651 641 638 621 577 686 750 735 896 868 783 797 657 632 573 614 592 535 486 415 397 435 378 481 511 570 605 646 735 862 1094 999 903 841 925 1004 1074 1115 922 1098 1271 1300 1284 1189 1112 1268 1367 1329 1196 916 796 764 693 833 1227 1203 1005 621 867 1329 1218 1321 1232 1228 1153 995 854 704 669 719 822 830 900 1135 1242 1359 1482 1471 1538 1079 1479 1396 1308 1264 1603 1623 1649 1445 1406 1165 845 746 908 1370 1544 1650 1326 1204 1142 1294 1289 1235 1146 1029 943 893 909 1029 1135 1047 1017 1004 932 932 983 928 992 1025 1095 1174 1021 1055 889 826 803 787 794 806 825 893 982 1123 1265 1288 1438 1396 1034 1335 1160 1273 1554 1579 1547 1207 1093 1004 976 1138 1210 1384 1115 1043 1008 867 818 780 759 739 732 733 731 731 729 733 739 763 763 754 726 753 788 838 835 776 764 761 773 780 788 784 790 791 807 812 823 826 807 824 844 870 898 903 935 1002 1098 1133 1144 1156 1189 1151 1142 1106 1046 1029 1006 978 963 955 927 906 895 884 881 871 863 863 870 872 871 882 871 879 891 918 922 924 916 922 934 933 946 926 944 946 935 931 921 913 915 904 883 877 876 873 871 883 997 1061 1082 1131 1181 1302 1174 979 869 850 915 931 949 996 979 904 939 1004 995 1017 1027 1027 1036 1073 1086 1094 1124 1134 1098 1016 968 862 780 883 959 998 1001 1025 979 937 943 929 940 896 897 907 929 953 1003 1043 1064 1049 1077 1275 1265 1224 1208 1165 1125 1119 1129 1127 1088 1045 996 1004 989 983 1003 996 946 928 906 882 910 919 924 926 930 915 906 912 907 887 916 954 961 977 1010 1009 990 988 965 935 916 923 938 923 912 896 886 895 899 943 944 914 941 920 1111 1011 967 1002 970 1109 1399 1301 1027 969 944 915 893 877 861 800 841 993 866 844 850 826 799 788 810 808 806 998 1486 1573 1476 1308 1729 1745 1340 1177 957 1089 1253 1231 1441 1167 1125 1133 1247 1176 1187 1379 1669 1408 1239 1158 1178 998 1129 1001 739 630 630 763 932 1004 1189 1558 1328 1268 1089
119 202 216 235 189 182 154 135 127 122 119 113 111 110 109 108 107 106 106 103 102 102 102 104 111 134 191 191 186 105 104 106 104 105 105 106 104 105 105 106 106 107 106 108 108 109 109 109 108 108 108 110 111 112 111 111 112 112 112 112 113 114 113 114 114 115 112 115 115 116 117 117 117 118 118 119 119 118 119 123 121 121 121 122 122 124 127 133 141 126 137 131 130 128 129 130 130 131 132 133 134 135 136 138 138 138 139 140 141 143 144 145 145 150 148 151 150 151 153 154 157 160 161 165 165 168 169 170 170 173 175 178 179 181 185 188 190 194 198 200 204 207 210 214 217 221 224 230 232 234 238 242 247 253 257 261 266 272 276 281 286 288 295 351 304 329 368 322 326 329 333 338 344 349 353 355 360 479 499 472 399 381 372 378 391 398 405 411 420 427 438 446 448 459 469 476 491 491 498 504 510 512 520 525 536 549 571 584 615 659 628 587 577 575 579 576 585 642 645 638 647 641 635 607 600 603 610 638 677 672 674 681 688 694 699 694 700 709 719 729 740 751 762 771 792 858 1020 1154 1483 1580 1224 1337 1524 1487 1595 1507 1614 1546 1298 1624 1963 1917 2073 1706 1643 1673 1947 1633 1622 1707 1723 1796 2201 2545 3260 3519 3877 3962 4035 3945 3800 4022 3635 3077 2975 2853 2239 2080 2004 1974 2000 1991 1992 2080 2287 2246 2431 2542 2481 2538 2627 3089 3178 3117 3174 3162 3101 2815 2446 2508 3020 2290 1985 1933 2247 2830 2014 1696 1725 1641 1611 1638 1530 1519 1750 2132 2534 2097 2236 1641 1531 1690 2177 2108 1904 1690 1543 1522 1234 1099 1215 1261 1364 1396 1281 899 862 732 646 594 574 669 798 1330 1642 1490 1557 1394 1460 1254 1102 841 994 770 658 629 620 588 569 575 697 701 781 737 705 711 640 615 601 576 508 467 462 467 374 423 459 510 513 550 615 661 763 855 1074 1239 1008 977 1105 1303 1219 1147 991 884 1074 1163 1111 933 1080 1472 1518 1564 1203 1077 1154 1444 955 656 1110 1075 684 705 1213 1347 1142 839 756 696 680 640 666 757 956 1241 1159 1386 1124 1208 1217 1109 1155 1051 1025 979 1004 1098 1456 1555 1354 1293 1358 1528 1404 1095 873 741 808 1204 1483 1543 1505 1355 1250 1104 1151 1124 1003 921 893 913 1000 1038 1058 1044 987 948 939 957 945 948 927 928 962 926 861 823 790 793 778 801 814 839 981 1005 1042 1206 1149 1227 1358 1267 1216 1465 1341 1593 1321 1290 1145 1077 1019 1037 1160 1126 1497 1465 1205 1198 1051 955 889 816 796 753 741 737 767 776 775 747 772 765 760 776 767 747 766 847 842 762 744 761 779 789 794 793 798 797 798 809 810 814 799 797 833 912 938 899 927 1012 1128 1182 1188 1328 1359 1201 1224 1158 1072 1029 996 964 961 942 914 903 888 874 868 864 860 857 863 881 870 875 882 891 906 910 910 910 915 924 929 931 932 939 945 931 923 922 910 903 896 888 895 885 873 880 915 913 910 997 1005 1043 1083 1154 1130 949 855 890 910 922 941 955 880 961 988 1017 1015 1025 1009 1016 1024 1055 1065 1076 1082 1042 993 944 914 792 780 935 1007 1031 1002 1009 996 987 916 917 904 890 892 925 950 1002 1063 1112 1130 1092 1051 1059 1167 1242 1172 1098 1061 1068 1099 1149 1125 1068 992 989 983 968 969 953 926 905 901 897 907 911 922 922 914 904 898 883 877 916 937 953 974 1014 1038 1030 998 988 1007 973 944 934 919 892 882 881 910 933 959 953 924 959 966 1011 1271 1233 1127 1016 980 1015 1305 1519 1242 1137 1012 925 992 972 922 867 815 781 793 807 810 802 784 785 790 795 925 1106 1315 1241 1142 1116 1333 1513 1194 1202 978 1340 1525 1424 1603 1354 1070 967 1289 1038 1101 1139 1197 1311 1248 1444 1257 1190 1368 1080 806 634 640 651 932 1061 1322 1180 1114 1192 1124
235 213 219 173 162 144 147 150 146 133 123 112 109 110 113 108 106 105 105 105 104 103 103 102 103 103 163 101 103 103 105 106 105 103 104 106 104 106 106 107 160 107 108 110 109 109 109 110 145 144 151 152 161 146 112 111 114 113 112 113 113 112 115 115 115 114 115 116 115 115 116 117 118 118 118 118 119 118 123 121 122 122 123 123 123 127 139 125 125 126 127 127 129 129 129 130 130 132 132 133 134 136 137 138 140 141 140 143 142 143 144 146 145 145 148 150 155 161 156 156 158 159 165 162 165 166 168 171 170 173 177 176 180 181 186 189 193 194 197 200 204 208 210 213 217 221 225 228 233 237 240 245 249 256 259 263 267 273 278 282 307 295 317 301 306 312 320 325 327 331 336 341 347 351 357 361 366 372 375 379 385 391 386 380 397 402 409 419 425 433 454 454 461 473 479 487 498 505 504 511 521 527 533 552 552 563 574 602 634 680 641 607 598 590 596 592 594 625 660 660 676 658 655 619 600 604 610 616 657 691 712 712 715 724 727 740 744 756 756 775 790 830 795 787 800 832 877 936 1082 1120 1146 1241 1238 1357 1259 1451 1323 1282 1384 1466 1712 2083 2138 2014 1743 1901 2282 1952 1756 1799 1970 2198 2514 2572 3348 4095 4403 4508 4576 4839 4910 4591 3797 3179 2608 2327 2120 2167 1978 1971 1955 1967 2019 2091 2146 2218 2282 2403 2471 3176 2894 2721 2621 2548 2491 2419 2343 2268 2733 2549 3032 3200 2229 2494 2952 2215 2171 1807 2148 1724 1724 2131 1461 1460 1444 1995 2218 2255 2619 2039 1644 1843 1744 1691 1634 1575 1527 1511 1682 1479 1523 1691 1755 1511 1185 1184 1081 1258 891 806 546 486 540 752 1235 1701 1603 1212 1231 1271 1005 1067 1402 1282 778 602 602 551 548 517 534 639 676 649 617 600 598 562 541 445 437 439 455 426 443 458 483 494 532 579 600 644 774 984 1176 1162 1174 1430 1180 1140 991 918 907 809 994 878 826 1061 1118 1321 1568 1682 1565 1298 1434 1434 994 632 1110 828 585 948 1206 854 694 605 651 806 896 874 890 1094 1347 1177 1293 1205 1141 1288 1348 1360 1260 1261 1235 1248 1008 924 1056 1353 1160 1111 1254 1325 1290 1238 910 736 849 1066 1245 1383 1513 1381 1208 1134 1046 976 923 891 897 939 1000 1034 1045 1047 924 930 1022 988 977 918 873 846 808 790 766 770 752 765 792 807 849 872 987 1127 1174 1169 1162 1562 1498 1339 1286 1447 1554 1376 1200 1119 1087 1073 1064 1157 1414 1245 1114 1091 1084 1087 919 950 919 964 928 837 766 752 767 780 791 796 793 797 792 805 796 770 746 760 807 767 743 766 796 803 805 796 794 795 790 793 806 809 787 790 824 848 886 886 911 972 1071 1166 1200 1265 1260 1176 1169 1121 1044 1016 987 947 932 910 892 892 882 870 864 866 856 852 859 880 872 872 880 883 900 907 905 910 909 936 929 936 936 930 924 916 909 904 904 910 893 885 884 875 881 926 878 896 889 920 955 961 1002 1016 1014 924 849 873 902 921 936 894 877 955 993 1014 1038 1049 1050 1035 1021 1023 1050 1054 1034 1005 953 912 824 780 818 952 1078 1057 1040 999 982 955 901 905 884 884 886 924 1005 1109 1151 1099 1196 1145 1073 1026 1058 1104 1132 1133 1069 1035 1078 1149 1246 1111 1030 972 962 943 960 944 904 899 900 891 866 905 906 910 904 890 874 870 888 914 948 984 1017 1057 1050 1046 1012 972 959 944 950 956 895 873 876 923 976 952 943 935 951 975 971 1033 1103 1399 1532 1200 1018 995 1121 1284 1132 912 982 1052 1157 1116 949 916 856 812 779 764 776 781 940 908 808 787 841 893 1049 1120 962 1306 1536 1535 1498 1303 885 1264 1259 1569 1970 1496 1133 885 1135 1008 874 976 1151 971 1123 1343 1195 1189 1033 1058 990 639 648 655 890 1069 836 860 732 795 869
305 238 195 169 171 147 135 132 125 129 112 111 111 123 130 115 107 106 105 106 103 104 100 102 103 104 102 103 103 104 105 105 105 105 152 157 107 107 105 108 107 108 110 109 111 111 112 150 151 150 155 157 146 144 111 112 113 114 114 113 112 114 116 116 114 114 114 113 114 115 115 116 117 116 118 119 118 120 119 119 120 120 121 121 122 123 123 124 124 126 126 127 127 128 129 130 130 131 133 133 134 135 136 138 140 141 142 146 145 144 145 147 147 145 146 150 153 152 159 163 159 160 160 161 163 166 169 170 171 173 176 179 181 182 183 186 190 194 197 202 203 206 210 213 217 221 225 230 235 239 243 246 250 256 260 265 269 275 280 283 289 293 301 304 307 312 317 321 328 335 339 344 349 355 360 366 370 375 380 384 389 394 396 395 385 414 418 427 447 449 459 472 480 471 476 485 495 511 524 527 526 538 546 556 569 581 597 609 654 693 661 651 640 601 626 623 612 621 695 691 695 671 658 629 603 607 613 623 627 641 670 716 746 762 801 803 825 851 864 977 1185 1138 1134 1102 858 854 843 939 945 978 971 1019 1081 1175 1255 1383 1485 1658 1862 1810 1698 1973 2204 1869 1818 2159 2363 2714 2083 2438 2300 2489 2686 2959 3324 4173 4957 5062 4808 4965 4896 4515 4187 4026 3199 2401 2051 1967 1926 1932 1933 1953 1999 2103 2153 2337 2598 3318 3503 4062 3510 3251 3026 3216 3093 3114 2849 2266 1849 1821 2906 2497 2030 2491 2330 1834 1806 1881 1967 1945 2343 1832 1506 1418 1412 1450 1618 1819 2279 1973 2068 2080 2031 1602 1567 1451 1311 1373 1817 1478 1519 1514 1466 1703 1699 1607 1581 1273 1134 1112 911 698 482 587 851 1305 1467 1238 926 1204 1316 1508 1371 1277 1225 823 547 514 485 413 493 584 588 582 576 549 531 490 433 425 427 448 441 429 447 463 489 508 531 556 550 580 714 938 1095 1345 1151 1470 1400 1293 1339 1104 1052 787 738 739 1116 1168 1255 1319 1376 1341 1360 1130 1308 1309 822 664 952 592 593 668 603 567 625 812 1141 1283 1157 1255 1394 1188 1524 1520 1353 1045 1076 1125 1186 1174 1373 1491 1297 1175 1241 1056 929 875 1029 1407 1230 1276 1337 1223 923 732 783 921 1263 1310 1366 1200 1112 1066 968 922 895 897 981 1011 1046 1042 1031 995 875 911 1053 990 936 862 830 805 765 728 770 765 773 785 831 905 1076 1023 983 1010 1426 1285 1324 1474 1303 1427 1265 1355 1180 1090 1062 1031 1096 1280 1218 1309 1560 1228 1374 1247 1252 1097 1070 1159 1104 1128 1076 908 857 816 784 808 823 814 808 808 805 801 806 791 806 806 784 762 718 766 837 848 839 828 805 792 788 790 792 793 779 786 821 838 857 866 888 936 1116 1215 1276 1139 1083 1064 1049 1035 1003 971 947 917 908 899 875 879 869 855 878 885 874 847 867 878 873 865 882 873 884 887 894 914 915 912 921 926 928 917 920 910 909 905 901 900 902 895 889 894 884 915 893 879 905 899 911 916 917 930 914 941 854 883 899 935 919 848 940 959 983 1068 1226 1304 1141 1067 1023 1043 1046 1030 1022 987 936 904 806 780 825 905 949 1039 1145 997 967 950 914 897 893 880 880 926 1000 1001 1063 1069 1111 1152 1131 1096 1112 1014 983 1020 1074 1058 1015 1051 1078 1122 1080 993 962 935 933 915 898 900 903 908 905 856 891 897 888 873 863 872 909 942 988 1020 1054 1067 1040 1027 1014 969 991 984 974 974 906 867 898 927 1009 940 931 994 1220 1007 1029 1060 1059 1131 1256 1469 1216 1008 949 942 1000 1288 1481 1218 1180 1042 1013 952 901 860 822 764 750 761 770 923 987 938 758 937 843 889 958 976 1197 1184 1348 1535 1176 834 1182 1322 1540 1200 991 1014 1325 1053 880 973 1027 1059 1334 1324 1334 947 867 744 643 649 653 685 682 730 801 837 886 937 1113
277 252 226 214 200 199 158 138 118 114 115 118 125 150 143 112 108 106 105 106 101 104 104 100 105 104 103 102 103 118 105 106 106 106 135 153 107 107 105 107 106 107 111 133 145 145 144 150 140 137 146 142 144 138 134 131 118 127 124 115 115 113 115 115 117 115 116 116 116 117 117 117 116 118 117 120 119 119 123 120 120 120 121 121 122 123 124 124 124 125 126 126 127 128 129 130 131 132 133 133 134 136 138 140 141 141 144 146 147 147 148 148 149 149 149 149 156 159 162 157 164 164 164 165 166 166 172 175 172 177 177 179 182 183 186 188 191 192 195 198 205 209 210 213 219 222 226 230 234 238 242 248 251 255 259 262 269 274 280 284 288 292 297 303 309 314 320 324 329 335 341 345 352 358 363 370 377 380 389 389 394 398 402 403 399 400 429 434 439 450 466 470 476 477 483 493 502 515 524 537 545 546 554 564 594 616 641 650 656 709 693 667 650 615 626 646 637 638 700 733 711 694 656 639 604 609 616 627 645 658 682 721 795 814 879 841 842 860 871 986 1230 1228 1245 1409 1147 936 869 876 926 1138 1334 1284 1222 1145 1202 1291 1551 1680 1531 1587 1756 1920 2280 2089 2018 2208 2724 2756 3162 3347 3215 3139 3368 3754 4033 4226 4116 3886 4584 5047 4476 3596 3184 3573 3524 2619 2168 1942 1929 1926 1934 1956 2243 2296 2396 2625 3246 3900 4067 4042 3558 2472 2417 2652 2334 2965 2456 2092 1650 2032 2323 2188 1515 1563 2110 1645 1691 1872 2156 2085 2574 2839 1842 1359 1359 1712 1900 1991 1891 1617 1466 1658 1561 1661 1336 1266 876 1190 1511 1298 1257 1375 1525 1156 1534 1447 1324 1414 1431 1550 1177 710 455 521 1144 1503 1321 1084 815 1076 1373 1316 1290 1288 1089 698 509 498 493 430 443 543 517 538 491 464 447 425 440 417 426 420 352 351 444 465 481 493 508 501 508 535 615 759 1023 1313 1346 1022 1199 1182 1109 1102 1031 697 627 1016 1154 1227 1168 1305 1362 1284 1411 1499 911 1137 650 728 587 504 594 684 725 869 1059 1161 1186 1213 1202 1407 1355 1470 1216 1183 981 1033 1043 1090 1167 1294 1416 1433 1473 1323 1117 1277 1307 978 834 1057 1309 1239 1225 1101 821 740 799 812 1021 1139 1097 1070 1016 976 925 903 888 916 1036 1061 1051 1046 1024 888 840 986 1011 949 876 815 805 797 752 726 774 765 768 822 972 1170 1198 1353 1147 1016 1227 1326 1502 1355 1120 1105 1103 1047 1006 1029 1261 1071 1135 1217 1552 1381 1328 1272 1245 1355 1503 1160 1343 1361 1216 1104 991 997 970 873 856 838 840 845 827 824 823 802 807 793 800 788 786 756 724 723 764 816 827 835 822 802 787 789 790 792 772 800 811 816 848 862 892 938 1077 1197 1147 1068 1020 1003 986 954 929 926 905 893 879 865 866 860 849 838 832 836 873 839 847 843 843 855 856 862 861 861 893 899 901 915 917 920 910 912 911 908 912 914 907 911 910 909 903 920 879 891 875 903 905 876 867 896 899 890 878 875 849 875 903 847 832 939 950 949 1068 1100 1160 1293 1399 1134 1040 1038 1027 1005 996 954 899 881 798 780 831 872 932 1067 1104 1109 960 937 904 910 910 875 874 901 921 938 948 1023 1080 1116 1161 1068 1011 1029 1072 1012 973 988 992 1001 1008 1002 1012 974 953 939 932 912 900 908 921 913 896 865 884 871 869 874 871 884 915 961 1017 1065 1056 1055 1043 1045 1018 985 950 985 1036 1170 888 863 890 923 1104 944 956 1024 1166 1390 1119 1277 1071 1072 1140 1041 1255 1035 969 1081 1316 1561 1609 1356 1444 1142 1016 1031 952 866 829 818 769 739 747 748 758 743 724 744 935 774 741 730 794 932 1077 1141 1129 852 888 1143 1084 962 915 946 1265 1313 837 1098 959 868 1092 1155 1159 1112 805 651 645 672 694 688 850 922 1166 1309 1085 1112 1149
258 242 299 262 173 150 131 121 113 119 120 138 137 156 120 123 118 106 106 104 102 101 99 103 103 104 102 104 105 105 106 130 128 132 143 158 107 107 106 106 106 107 236 167 150 161 157 149 144 138 133 130 127 127 130 132 117 120 129 116 116 114 114 117 116 115 117 119 129 118 118 116 116 118 118 118 119 120 122 120 121 123 122 122 122 123 124 124 125 125 126 126 127 129 130 131 131 133 134 135 136 138 139 141 143 144 145 149 149 151 149 151 150 151 152 153 151 158 156 164 165 162 166 169 170 170 170 172 174 175 177 179 183 186 188 190 193 195 197 200 204 208 210 214 218 222 226 230 233 238 243 247 252 256 261 267 270 275 279 284 289 294 300 304 309 315 320 327 332 339 343 349 358 360 366 371 377 384 393 401 401 406 407 413 416 405 408 438 445 459 465 470 482 486 506 513 526 536 560 554 563 566 574 592 576 587 602 623 675 721 717 668 641 631 637 645 657 679 719 747 731 710 672 624 607 611 616 622 658 704 722 787 878 927 949 911 920 909 900 927 965 1036 1171 1370 1092 1155 1011 963 879 918 1098 1302 1417 1748 1508 1313 1369 1386 1463 1628 2021 2086 2280 2624 2306 2389 2516 2911 3627 3420 3578 3315 3909 3318 2750 3143 2987 2996 4162 4183 4339 3159 2668 2606 2449 2335 2216 2011 1899 1906 1916 2007 2506 2780 2728 2554 2556 2814 3425 3877 3743 2945 2364 2311 2224 2097 2298 2369 1579 1482 1461 1408 1448 1756 1388 1437 1743 1921 1885 1815 1470 1388 1332 1324 1313 1409 1800 1928 1704 1547 1419 1313 1243 1132 1022 989 825 731 842 751 930 1044 1451 1434 1020 1457 1044 1465 1298 1098 1004 609 406 570 1263 1360 1290 875 954 1409 1425 1186 1035 887 852 815 625 461 452 369 399 565 426 405 416 421 400 391 400 412 411 416 407 347 419 432 460 492 527 546 478 531 562 670 839 1091 1021 834 846 1053 1073 980 1008 629 616 746 946 1078 1210 1467 1099 1020 913 1144 891 903 575 629 481 569 711 845 918 1028 1103 1238 1239 1216 1142 1237 1269 1267 1092 941 949 1040 1357 1436 1406 1361 1348 1318 1303 1500 1655 1364 1351 1281 1013 876 794 958 1267 1051 737 861 869 775 807 1000 1002 972 968 926 898 894 900 920 954 1014 1028 1013 992 867 831 929 871 843 815 805 783 759 692 778 772 757 782 1077 1138 1133 1421 1270 1485 1279 1230 1408 1252 1022 1162 1177 984 983 1037 1086 1175 1280 1161 1482 1453 1306 1139 1145 1209 1357 1466 1425 1395 1282 1205 1124 1051 1136 1149 1021 886 840 861 882 835 810 821 806 768 788 784 788 772 761 730 720 760 756 774 808 829 814 802 788 792 792 764 786 799 807 829 855 951 867 906 1010 1086 1048 975 941 933 923 905 912 875 869 864 858 854 848 833 859 918 919 900 893 881 871 899 905 893 909 903 874 875 903 878 910 906 895 905 891 902 905 900 915 906 909 927 906 877 877 877 863 907 906 842 825 820 787 866 883 873 848 858 872 901 814 867 938 963 935 992 1038 1109 1208 1232 1156 1048 1006 1009 992 983 939 890 864 809 780 804 852 940 1049 1104 1064 966 939 905 880 886 869 879 898 902 902 946 951 1023 1067 1230 1105 1026 973 997 950 1106 1048 1017 1013 996 988 967 947 932 927 909 909 903 932 940 930 905 887 869 872 862 854 871 890 931 963 1014 1042 1078 1160 1145 1075 1190 1044 950 989 988 1047 871 861 882 903 907 939 983 1044 1394 1323 1201 1284 1310 1136 1226 1464 1228 1072 1045 1071 1353 1459 1625 1399 1216 1164 1573 1273 1095 964 883 835 813 770 730 738 731 714 710 698 707 718 714 703 680 680 681 693 716 788 1072 1245 1320 1257 882 740 869 793 743 736 737 913 811 765 699 646 645 646 673 699 679 668 808 1310 1004 1119 1380 1435 1278
281 286 216 176 147 139 118 118 126 130 146 135 143 127 123 133 122 111 107 99 99 99 99 102 100 102 103 102 136 105 106 148 134 125 130 144 156 145 130 107 107 108 148 192 164 162 149 146 136 138 132 133 132 128 121 123 121 119 123 124 117 117 117 118 117 115 118 118 118 118 118 119 118 117 119 118 119 120 120 123 121 121 122 122 123 123 124 124 125 125 127 127 127 129 129 131 132 133 134 135 137 139 141 141 145 146 147 148 150 153 152 153 154 153 154 155 155 156 160 161 162 169 168 169 172 175 176 174 180 176 181 180 183 185 188 190 193 197 198 203 205 208 210 214 218 223 226 231 236 238 242 247 251 255 260 264 270 275 280 285 290 296 300 306 312 320 323 328 335 340 344 352 359 366 373 379 383 388 395 399 408 408 415 418 425 430 416 416 451 457 467 477 485 511 516 525 540 562 556 576 592 600 599 618 616 598 600 599 602 634 639 636 625 647 652 649 684 691 715 762 744 709 682 670 622 628 628 642 702 733 757 775 835 917 930 965 986 962 954 1020 1023 1192 1333 1537 1383 1308 1015 1149 1196 937 916 1069 1412 1714 1917 1885 1698 1483 1501 1660 1818 1974 2504 2443 2662 2707 3074 2986 2833 3130 2794 2655 3470 2925 2516 2447 2357 3018 3061 2646 3313 2859 2237 2106 2191 2203 1955 1906 1901 1888 1885 1890 1961 2068 2284 2376 2473 2576 3414 3705 3970 3627 2937 3014 2396 1909 1801 1623 1561 1449 1416 1364 1543 1517 1250 1503 1696 1651 1743 2099 2034 2690 2040 1284 1280 1278 2204 1933 2089 1565 1589 1592 1662 1391 1513 1362 1218 983 1030 930 624 606 944 840 981 951 1193 1188 1342 1690 1037 736 389 378 543 701 807 683 769 984 1196 1484 1235 1291 891 748 538 406 340 353 368 398 488 478 459 434 417 412 383 417 402 410 399 340 407 422 426 452 598 635 506 472 556 815 1190 1143 1105 1220 1069 671 929 770 610 597 819 1139 906 1134 1411 1176 1211 1237 992 716 632 584 502 460 519 597 917 1034 1068 1140 1181 1200 1062 1126 1039 969 1010 905 875 983 1080 1156 1154 1148 1142 1196 1206 1208 1247 1301 1378 1390 1391 1346 1321 1327 1153 889 894 930 713 879 1262 896 811 854 902 905 894 869 844 912 927 936 943 968 976 965 871 823 804 815 805 794 776 773 762 759 750 766 728 750 801 844 894 1059 1053 1077 1137 1002 967 961 915 947 955 919 988 1250 1083 1239 1341 1413 1263 1160 1201 1136 1098 1091 1108 1146 1281 1294 1208 1187 1133 1089 1044 1117 1145 995 881 852 853 791 825 827 819 811 814 784 759 770 768 767 760 725 719 714 763 780 823 856 831 804 786 782 758 793 793 800 801 852 852 854 852 856 879 895 906 905 898 890 888 876 799 858 810 815 876 835 840 857 866 898 887 879 912 906 913 916 916 912 910 912 916 914 923 905 907 917 908 927 925 935 923 941 926 929 928 881 878 877 873 912 913 907 905 907 889 829 777 817 870 843 848 856 803 824 942 933 926 923 987 1025 1048 1070 1101 1191 1097 980 947 972 1008 942 881 847 852 780 814 834 933 1028 1070 1027 962 929 902 882 882 864 864 874 875 884 887 914 926 986 1040 1148 1051 980 942 944 1007 1062 1100 1087 1044 1037 967 932 919 904 923 910 896 917 918 924 895 865 827 857 833 871 890 920 965 963 975 1054 1073 1076 1050 1014 1028 1001 958 895 917 894 856 854 880 950 1034 1056 1018 1111 1212 1519 1553 1332 1272 1222 1248 1358 1325 1070 1138 1075 1205 1494 1677 1419 1304 1281 1464 1509 1455 1230 1132 1009 940 860 775 721 716 717 710 705 699 694 679 686 679 763 684 688 705 718 709 693 685 680 689 704 693 676 677 676 671 668 669 653 648 655 668 717 730 812 717 676 710 763 916 1265 1266 1018 1209
221 213 269 167 125 123 127 134 140 156 167 164 131 146 137 152 157 139 125 99 101 99 102 102 102 102 102 99 135 136 143 145 150 146 141 137 146 163 157 109 110 110 131 153 148 146 135 134 130 133 129 127 128 121 123 119 119 119 122 115 120 116 118 118 117 118 119 121 121 119 119 119 118 118 120 121 120 120 122 122 122 123 121 122 122 123 124 124 124 125 126 126 128 129 130 131 130 133 133 135 136 138 140 142 144 146 146 149 152 153 156 156 159 154 156 157 158 158 164 167 169 165 171 172 175 174 178 179 178 177 181 182 183 186 189 192 195 197 200 206 209 211 214 217 221 222 225 229 234 238 244 247 251 257 261 265 269 274 280 286 290 297 303 309 316 322 330 335 342 346 353 359 365 370 378 385 389 396 402 407 411 415 420 424 429 436 443 448 425 427 445 487 508 508 516 527 543 544 561 581 600 630 636 664 669 656 616 598 587 593 623 629 640 644 646 677 690 723 734 765 751 731 720 700 655 670 678 733 776 805 823 861 918 961 978 1116 1088 1037 1108 1225 1104 1374 1388 1681 1392 1112 1116 1508 1707 1346 1011 948 1205 1583 1524 1635 1732 1671 1575 1734 2207 2349 2081 2092 2303 2245 2990 2738 2628 2393 2455 2684 3452 3195 2404 2247 2260 2535 2496 2354 2943 2962 2410 2058 2039 1993 1950 1953 1906 1868 1854 1846 2190 2240 2195 2008 2136 2539 3071 3751 3956 3374 2849 3039 3027 2567 2065 2329 2618 1770 1604 1264 1159 1118 1142 1278 1511 1506 1470 1980 2269 1547 1343 1255 1241 1266 1855 1788 1924 1505 1423 1363 1488 1854 1656 1779 1319 1341 1550 1381 1027 535 584 857 1111 1245 1471 1176 1139 899 1191 1027 706 429 364 358 350 352 343 438 585 872 1156 924 748 612 371 377 348 342 350 398 379 468 432 439 381 367 400 397 396 331 331 402 399 393 397 401 406 415 429 436 631 783 1085 1282 1118 1060 1016 595 567 512 666 922 1187 1304 1343 1181 1103 1169 814 811 669 541 483 433 506 549 683 932 1043 1084 1158 1185 1159 1023 969 811 792 799 819 894 923 937 983 1019 1025 1104 1138 1246 1254 1395 1311 1212 1131 1087 1058 1128 1266 1210 1169 1027 755 786 718 732 995 830 755 850 803 793 809 861 901 973 1006 995 983 957 941 890 816 812 781 785 781 765 754 757 762 658 748 689 745 788 1034 873 834 835 867 863 840 850 864 868 908 938 979 1053 1075 1040 1399 1462 1349 1249 1233 1121 1093 1086 1078 1072 1063 1088 1136 1149 1139 1117 1076 1034 1052 1076 1102 902 836 802 826 868 962 916 845 821 790 783 775 749 772 766 767 763 767 755 716 765 773 778 790 793 787 783 756 783 787 787 788 810 841 829 828 845 849 844 844 834 851 854 823 786 870 866 855 855 859 874 881 857 890 917 937 920 932 939 934 927 924 922 935 929 945 952 944 942 929 951 968 968 967 961 947 956 939 943 934 922 898 925 912 915 920 938 955 918 887 876 859 783 772 795 823 802 864 899 905 904 877 937 1017 1037 1034 1072 1156 1093 1001 945 923 963 1017 990 881 826 780 789 812 816 936 1004 1040 1039 961 910 895 884 881 859 859 858 864 861 862 883 895 924 966 996 1020 966 934 923 931 983 1094 1088 1050 1009 973 914 920 927 954 931 908 885 884 869 859 849 847 818 836 872 900 973 1023 1005 940 956 968 954 978 971 930 918 895 879 870 852 840 862 907 1059 1260 1368 1090 1124 1188 1245 1284 1403 1437 1377 1393 1330 1073 1143 1313 1215 1117 1223 1531 1749 1457 1427 1556 1742 1565 1431 1163 1075 1077 946 857 781 724 707 706 705 685 679 681 679 743 979 1269 1021 814 722 711 693 679 677 692 678 694 680 684 677 672 695 709 693 709 792 768 975 901 811 918 797 707 697 1048 1291 977 890 1184
269 192 177 129 133 143 151 157 173 249 211 152 148 152 148 185 181 229 175 180 146 134 217 102 102 102 102 99 102 138 143 148 152 153 147 160 153 162 158 144 149 144 153 150 142 136 135 136 133 130 133 128 128 123 122 120 118 118 124 118 127 119 119 120 120 118 118 119 122 125 123 121 119 119 120 121 121 125 121 122 122 122 122 123 123 123 124 124 124 126 127 127 127 128 128 129 130 133 135 136 137 140 141 143 144 147 148 151 151 155 155 156 159 162 157 159 160 162 165 167 172 173 173 176 178 177 180 182 183 184 182 185 185 187 193 196 195 200 202 206 208 212 215 219 221 225 228 231 234 237 242 247 250 255 260 265 270 277 282 288 293 300 307 313 322 329 334 342 346 354 361 367 374 379 385 391 397 403 408 415 419 421 428 432 434 441 448 455 462 468 468 437 493 515 509 516 528 543 556 568 597 613 633 672 700 723 685 631 583 583 577 595 605 607 646 661 710 758 751 797 766 750 747 750 722 741 800 887 939 962 964 1018 1164 1084 1053 1350 1257 1133 1423 1534 1515 1347 1365 1169 1106 1102 1421 1340 1824 1479 1238 1018 1052 1286 1500 1732 2187 1970 1754 2187 2189 2426 1852 1966 1983 1999 2814 2356 2271 2294 2982 2915 2809 2369 2280 2184 2160 2068 2164 2170 2320 2172 2421 2061 1990 1978 1967 1969 2185 1835 1836 1813 1764 1799 1839 1876 2131 2388 2468 2478 2547 3687 2933 2507 2463 2801 1953 1694 1902 2174 2278 1400 1099 1096 1452 1771 1643 1372 1521 1853 2433 2501 1762 1230 1195 1171 1161 1608 2091 1602 1569 1259 1204 1317 1511 1674 1414 1358 1712 1344 860 494 746 1068 1426 1394 1215 1334 1592 1052 872 806 835 810 692 667 567 576 484 367 325 347 693 749 621 479 357 351 337 334 339 388 424 392 433 371 361 391 402 402 388 327 394 396 408 449 458 463 435 425 413 467 633 1045 1262 1389 1204 859 608 503 502 794 897 1336 1322 1117 1137 1074 888 844 656 568 470 438 533 619 739 811 875 804 833 926 981 994 1018 864 770 865 1051 1083 1028 991 998 1064 1083 1098 1180 1226 1263 1325 1391 1357 1269 1229 1234 1270 1174 1041 1035 1096 1045 1009 854 759 725 718 851 868 797 755 743 760 844 887 983 1006 1015 995 967 929 906 845 750 780 732 741 757 752 749 757 760 651 709 742 751 960 1186 1178 968 866 854 870 858 909 999 1102 1218 1074 1161 1245 1423 1229 1099 1160 1278 1112 1180 1174 1237 1281 1188 1129 1107 1076 1065 1057 1044 1034 989 964 958 938 904 876 815 841 906 972 983 930 831 814 777 763 762 745 772 770 772 774 769 774 713 735 762 762 763 746 749 738 746 747 749 751 775 786 793 803 809 817 796 805 809 821 825 808 776 831 854 853 862 866 886 878 880 930 979 972 986 983 985 981 961 957 953 955 945 945 958 982 975 960 973 978 982 984 972 975 963 965 936 929 928 924 926 943 925 924 924 937 931 915 896 887 869 859 865 838 761 807 873 890 875 859 876 926 993 1109 1103 1104 1226 1157 1022 931 912 944 986 985 908 846 780 782 785 843 940 993 1003 1031 991 924 899 873 868 868 854 856 850 848 846 859 868 888 931 959 953 939 921 915 910 921 953 977 1037 980 929 903 910 938 1024 945 892 876 856 859 844 847 831 821 852 870 961 1132 1130 1122 978 946 924 930 949 933 915 895 862 858 856 833 845 902 937 1130 1137 1370 1092 1236 1348 1561 1397 1454 1282 1220 1118 1353 1376 1136 1562 1412 1265 1176 1222 1434 1562 1707 1755 1637 1486 1386 1336 1536 1290 1123 965 883 788 756 710 695 698 689 688 681 679 878 1101 1042 1114 743 965 1088 1059 1138 916 1028 955 1016 1210 1141 886 845 843 931 865 963 948 1277 1207 959 1019 959 780 728 707 762 807 837 893
185 164 135 138 155 161 168 193 277 194 159 178 165 227 184 233 325 341 309 289 243 261 369 98 98 98 101 101 102 105 148 149 152 148 155 156 152 157 157 150 149 150 153 145 139 139 138 133 134 133 134 132 127 126 121 121 118 119 118 123 131 124 119 122 119 119 119 119 123 121 121 125 125 120 121 122 122 122 124 126 123 124 123 122 122 123 123 124 125 125 126 126 126 127 129 129 131 133 135 136 139 140 143 144 144 148 149 152 153 155 157 159 160 160 161 162 163 166 165 172 172 177 176 175 178 183 180 185 185 186 188 186 187 188 191 197 198 199 203 207 210 215 217 220 224 229 231 234 239 245 247 252 255 255 262 267 271 279 285 292 297 304 311 319 326 333 342 346 354 361 367 375 381 387 395 400 407 411 418 422 429 434 434 441 444 447 455 460 466 471 479 488 495 455 455 512 532 552 535 540 553 561 569 572 591 599 609 601 571 559 574 587 596 613 624 636 692 772 765 814 803 784 783 798 796 825 905 985 1098 1207 1394 1500 1283 1089 1374 1638 1390 1318 1478 1677 1576 1281 1334 1279 1718 1389 1372 1816 1711 1474 1216 1060 1121 1406 1839 1985 2365 2110 2541 2428 2253 2226 2241 1708 1675 1856 2045 1721 1784 2444 2582 2958 2650 2800 2562 1933 1871 1960 2163 2498 2467 2006 1993 2447 2356 2073 2055 2326 2396 1921 1760 1748 1736 1750 2041 1943 1961 2014 2057 2108 2445 3305 2719 2426 2384 2269 1522 1709 2110 1597 1438 1102 1036 1040 1216 1314 1459 1321 1276 1588 1862 1816 2355 1775 1163 1154 1131 1060 1201 1310 1181 1091 1143 1296 1489 1479 1143 1240 1408 962 637 479 754 1057 1425 1251 1088 986 1302 1274 1097 1260 1231 868 862 1239 1082 948 1261 859 639 319 352 645 539 420 338 332 331 328 337 393 405 378 403 338 377 363 313 317 371 406 422 517 544 545 573 604 515 461 435 404 479 672 747 720 614 460 475 585 717 800 988 1020 979 846 919 708 623 508 375 383 541 600 690 806 857 874 905 966 1004 918 830 906 845 766 810 973 1017 1055 1094 1063 1010 1006 1016 1097 1263 1176 1140 1195 1251 1366 1353 1353 1329 1298 1260 1116 1002 1018 1017 970 894 825 741 706 745 821 798 744 743 769 840 892 975 998 973 949 918 900 842 751 759 762 748 743 735 749 744 736 748 658 723 749 824 876 884 905 907 989 1084 1141 980 933 988 1109 1277 1407 1542 1302 1226 1538 1223 1172 1010 1183 1302 1469 1357 1263 1254 1174 1135 1069 1060 1037 994 954 937 923 885 870 865 841 824 869 918 931 958 984 931 904 789 768 758 746 767 764 766 769 764 765 713 715 720 721 725 731 735 738 741 744 769 777 788 790 805 814 817 806 754 756 759 763 766 771 785 821 806 824 863 873 888 933 983 1005 1055 1035 1151 1090 1013 1025 1013 982 975 968 982 1001 997 978 972 968 965 965 958 957 955 954 952 960 935 932 955 942 947 949 945 929 928 920 919 914 895 896 874 886 871 866 837 755 755 772 835 833 876 905 933 1007 1100 1085 1002 998 966 957 899 901 922 959 967 877 780 780 799 870 932 964 987 1020 981 957 910 877 870 859 864 849 846 842 841 850 861 862 905 1000 1034 955 920 902 903 896 899 916 941 936 906 898 914 960 983 900 876 864 844 855 833 844 811 836 845 865 1041 1088 1052 1101 1098 982 919 885 907 877 866 856 852 843 844 839 866 960 939 971 1028 1041 1061 1183 1556 1205 1102 1082 1259 1294 1465 1722 1574 1220 1425 1533 1404 1349 1185 1384 1528 1674 1708 2009 1786 1697 1672 1562 1516 1243 1150 998 865 795 736 693 690 689 684 680 679 677 724 784 783 701 831 995 1209 1547 1445 1181 1058 1115 1210 1043 1003 878 961 1179 1071 1195 1191 1226 1338 1108 1220 1038 957 816 719 727 760 782 788
148 141 168 174 206 214 332 305 234 177 266 182 183 204 284 195 230 327 286 203 200 231 98 101 101 101 101 101 103 105 141 137 146 145 153 158 151 147 148 152 145 150 147 146 141 138 136 137 133 133 131 130 126 124 124 121 120 120 122 122 122 124 124 120 120 121 121 121 122 122 126 131 126 133 124 125 122 123 122 122 126 124 124 123 130 123 126 127 125 123 126 125 127 129 129 131 133 133 135 137 139 142 142 145 148 150 151 153 155 156 160 159 169 166 164 164 166 167 168 169 175 177 180 180 180 184 187 189 187 189 190 190 190 191 193 199 201 204 206 209 214 217 219 223 227 233 235 239 242 246 250 255 259 264 264 271 274 283 288 294 301 309 314 323 329 337 347 352 359 368 376 383 391 396 404 409 416 422 428 434 438 442 446 450 454 455 459 467 475 484 485 498 504 510 506 510 471 474 482 486 492 484 497 535 535 516 509 530 538 555 582 590 601 627 641 644 668 716 811 823 845 832 826 858 900 995 1035 1149 1172 1397 1702 1661 1404 1295 1533 1721 1795 1682 1516 1852 1479 1374 1694 1605 1605 1815 1674 1596 1387 1167 1123 1108 1441 1363 1402 1669 1977 1806 1921 2249 2068 1973 2400 2136 1690 1559 1564 1626 2089 2279 2738 2152 2180 2002 1884 1736 1657 1645 1761 2043 2198 1921 1893 2015 2044 2251 2431 2065 1920 1729 1677 1676 1690 1806 2087 2369 2415 2613 3187 3216 2546 2303 2228 2116 2056 2112 1374 1826 1510 1771 1304 980 998 1075 1479 1615 1703 1315 1194 1305 1580 1764 2446 1899 1405 1184 1097 1058 1039 971 1009 1181 1482 1535 1446 1234 928 1008 770 765 962 769 437 759 1185 1223 953 867 1171 1318 1273 1045 873 1020 1095 1323 1479 1439 1175 940 577 348 313 467 465 325 322 322 317 316 357 399 398 404 353 300 305 309 316 400 426 466 459 613 721 790 889 1016 1009 836 625 389 396 450 421 475 468 541 598 678 680 747 793 802 719 707 634 563 405 360 546 577 591 740 783 867 991 981 948 903 887 875 816 773 725 808 944 975 1048 1079 1082 1087 1104 1088 1026 1016 1017 1098 1188 1163 1176 1176 1176 1162 1211 1147 1068 1025 992 917 959 931 865 805 757 668 744 747 751 753 730 739 781 821 875 894 894 854 851 816 763 755 742 724 733 712 737 717 713 638 650 739 738 765 832 933 965 1000 959 1034 1194 1073 1178 957 1042 1123 1076 1174 1442 1175 1130 1089 1245 1052 966 1051 1298 1334 1191 1200 1141 1190 1134 1113 1070 1000 998 946 907 893 900 884 837 842 866 879 910 925 963 979 922 865 821 769 765 737 743 754 760 765 757 713 749 721 722 726 727 731 735 739 754 762 769 763 737 756 743 781 772 749 752 754 787 791 809 796 848 877 914 945 925 964 983 942 1036 1097 1202 1133 1082 1069 1054 1010 1004 995 998 999 1002 986 1015 1017 1010 998 989 977 978 977 979 980 965 938 938 962 975 976 968 986 987 960 962 958 959 977 948 973 966 951 940 908 886 861 827 754 752 758 765 834 866 900 938 973 1023 933 912 949 891 875 905 902 880 835 780 788 833 885 915 945 955 970 1010 1007 973 918 888 881 883 876 848 857 838 836 854 864 887 934 1058 1066 947 911 883 884 876 876 884 880 877 905 943 972 964 899 857 850 835 844 838 821 791 832 835 852 1002 1039 1086 989 976 932 893 855 859 859 837 838 834 828 824 845 886 986 1013 1160 1300 1291 1248 1077 1062 1075 1160 1349 1497 1524 1643 1422 1273 1284 1508 1562 1626 1589 1461 1481 1217 1487 1812 1882 1665 1860 1646 1540 1483 1539 1257 1063 969 868 782 720 714 686 682 678 676 676 675 673 671 701 1052 992 1338 1737 1570 1351 1355 1404 1255 1035 946 1080 885 1124 1488 1371 1341 1325 1443 1277 1148 997 920 1074 732 746 774 796 795
146 168 173 223 211 315 474 387 199 227 339 259 231 295 272 238 190 178 156 141 186 132 98 101 102 101 102 102 116 130 131 129 138 145 144 145 140 143 142 143 142 151 142 141 139 138 142 135 138 134 131 131 133 129 126 120 120 121 121 122 129 129 122 121 121 121 122 121 124 122 128 127 124 124 125 124 123 122 123 133 129 123 124 124 125 124 128 124 126 126 127 128 127 129 129 131 133 135 137 137 140 142 144 146 148 151 153 155 157 159 161 162 165 169 167 171 171 169 169 171 176 179 182 184 185 186 187 188 191 193 193 192 195 195 196 199 201 205 212 212 218 222 221 224 229 235 241 242 247 249 255 258 263 267 272 274 282 284 292 298 305 311 320 327 337 343 351 360 367 377 384 392 399 405 411 418 426 432 439 445 450 455 456 461 465 466 466 473 479 489 495 506 518 524 518 525 532 535 532 507 507 509 511 496 499 503 509 510 519 528 570 566 584 605 618 627 656 682 748 815 849 879 890 931 1009 1133 1158 1279 1481 1470 1965 1698 2009 1510 1514 1456 1557 2003 1888 1625 1469 1631 1712 2183 2098 1836 1466 1239 1204 1191 1200 1563 1889 2047 1807 1817 1819 1641 1636 1666 1835 1860 2279 1739 1533 1499 1548 1740 2197 2655 2601 2512 2044 2039 2184 1915 1517 1518 1654 1848 2045 2043 1782 1810 1902 1995 2286 2296 1650 1593 1623 1619 1642 1871 2064 1970 2057 2011 2370 2475 2508 2242 2117 1994 1932 1897 1536 1196 1106 1071 966 948 919 1191 1307 1523 1513 1312 1123 1099 1229 1418 1473 2147 2176 1732 1059 950 966 937 916 1294 1216 1327 1287 1437 1257 1031 1090 1272 1240 727 446 531 902 1323 1176 867 833 1015 1237 1147 1122 1387 1400 1380 1343 1049 989 931 728 329 331 432 380 308 309 308 310 308 375 367 370 364 310 363 386 345 395 445 479 549 681 803 993 897 1064 1185 968 764 483 368 405 445 542 633 583 611 626 623 640 661 640 630 627 550 433 352 474 510 568 638 692 844 932 904 997 1089 984 993 949 879 795 717 727 860 941 987 1044 1061 1030 1038 1081 1096 1046 982 956 950 993 1042 1071 1059 1048 1039 1030 1018 994 969 935 896 896 900 891 872 812 763 643 727 737 753 716 699 709 732 722 729 728 741 735 722 653 707 709 700 702 705 699 654 569 634 684 700 727 778 891 971 1049 1102 1066 1117 1191 1503 1104 1038 1323 1143 1198 1454 1580 1421 1327 1201 973 1012 977 1322 1315 1214 1132 1091 1091 1146 1113 1102 1095 1053 984 932 909 901 894 851 881 889 918 994 953 965 955 966 951 845 801 767 746 735 727 723 754 770 745 712 755 740 749 749 751 760 748 759 759 770 757 746 758 762 767 755 754 784 808 808 808 807 833 838 938 1184 1195 961 1080 1058 1050 1006 1026 1109 1219 1157 1135 1110 1093 1059 1005 1000 998 992 997 1047 1044 1037 1044 1032 1019 1006 1002 1004 990 976 963 941 940 988 977 1000 1003 996 1009 1016 1029 1066 1193 1193 979 1032 1173 1249 1235 1134 945 904 924 914 880 781 750 751 750 804 837 858 885 919 878 853 842 853 925 867 816 780 780 804 864 868 913 934 940 954 979 1003 1029 1003 947 902 883 872 859 852 841 833 830 839 862 876 944 958 984 941 894 863 862 858 860 862 876 927 980 965 948 887 850 842 822 837 827 816 782 832 832 832 873 939 985 966 925 933 893 842 844 824 827 823 811 839 870 925 906 969 1086 1101 1201 1144 1049 1042 1117 1252 1274 1504 1590 1311 1255 1279 1095 1357 1642 1481 1328 1450 1706 1426 1256 1335 1581 1795 1545 1559 1856 1586 1433 1270 1349 1517 1149 1016 875 770 740 718 694 677 675 673 674 673 671 719 943 1176 1209 1555 1752 1594 1551 1360 1450 1223 1196 1020 937 1180 1514 1812 1774 1496 1474 1587 1474 1277 1064 797 740 781 869 942 908
176 194 248 412 266 440 499 292 253 377 369 283 174 196 167 150 150 117 97 100 101 101 99 102 102 102 102 127 118 123 129 130 118 132 136 138 138 147 149 141 152 143 149 140 141 140 134 134 138 134 133 133 134 133 119 124 134 131 135 125 138 131 131 123 122 122 123 122 121 123 124 126 124 124 127 130 124 125 123 123 124 124 124 124 125 125 125 125 127 128 128 129 130 131 131 131 133 136 137 139 141 143 145 148 150 152 154 156 158 161 161 164 167 165 172 172 173 173 172 173 180 181 183 186 187 189 191 192 192 197 198 198 197 199 200 202 205 208 211 219 220 224 229 230 233 238 243 250 249 255 261 265 267 274 280 281 285 293 297 306 313 319 326 334 343 351 359 368 376 383 391 402 409 414 422 428 436 443 449 455 462 467 469 472 475 479 475 480 489 494 512 529 518 526 539 536 533 530 522 520 518 524 523 523 529 521 521 523 516 546 560 578 577 579 599 604 608 656 656 715 802 883 936 1001 1096 1210 1383 1504 1654 1503 1529 1694 2319 2308 2262 1914 1680 1833 1992 1584 1692 2164 2114 1771 1796 1505 1304 1277 1270 1429 1431 1407 1588 1715 2238 2039 1606 1523 1503 1818 1905 1833 1981 1670 1444 1436 1717 2173 2297 2543 2292 2460 2263 1993 1673 1434 1455 1429 1868 1931 2040 1841 1701 1717 2026 2146 1964 1860 1631 1563 1577 1579 1601 1718 1764 1828 1861 2057 2510 2511 2333 2120 1981 1810 1684 1387 1265 1183 1123 1056 1013 881 876 865 1316 1510 1555 1385 1196 1113 935 889 868 1088 1169 1129 871 897 890 890 891 1274 1668 1311 1296 1509 1370 1259 1503 1341 1062 841 602 378 439 803 964 1103 741 908 953 947 1288 1287 1070 1067 1195 993 860 657 526 305 341 377 320 297 297 298 299 352 362 356 287 299 359 359 406 426 455 473 612 790 930 983 1156 1224 1337 1141 791 509 362 433 451 582 725 749 718 693 634 642 655 587 581 541 479 439 427 531 585 713 771 790 787 794 852 856 839 869 917 875 862 843 831 713 674 797 876 917 953 920 996 1088 1085 1117 1085 1088 1029 969 929 901 922 948 955 923 949 947 962 927 875 841 865 872 871 813 764 720 683 678 691 715 739 729 715 719 719 723 721 717 699 685 615 695 690 680 663 669 623 537 656 676 697 728 749 802 885 1060 1240 1168 1346 1352 1412 1273 1373 1222 1153 1268 1567 1317 1294 1397 1283 1125 995 944 976 1286 1188 1058 1141 1086 1082 1114 1081 1102 1069 1013 939 912 896 890 879 893 891 917 969 990 984 991 1052 1036 962 895 819 773 775 770 762 734 721 717 710 705 750 747 747 743 742 748 757 747 756 736 734 746 751 752 772 777 791 797 792 807 820 810 810 821 861 991 1076 933 1152 1117 1058 1072 1117 1128 1251 1235 1273 1376 1207 1127 1032 998 997 1002 1099 1174 1183 1112 1087 1050 1030 1033 1016 961 1039 1041 1013 968 981 979 1005 1014 1062 1093 1147 1274 1274 1384 1256 1081 1007 1027 1029 1099 1063 1005 953 932 968 1077 985 884 874 839 773 749 748 761 780 800 803 807 805 819 809 804 780 780 787 835 861 881 899 917 917 926 944 965 984 1003 1011 987 904 883 860 851 854 841 836 825 823 842 893 887 908 910 898 874 853 845 846 852 893 943 1013 942 937 896 857 841 817 824 824 821 784 772 823 836 852 870 894 882 886 873 839 828 818 802 798 818 878 892 957 1004 992 938 975 1024 1152 1004 1028 1180 1364 1386 1361 1449 1304 1296 1075 1078 1358 1508 1527 1267 1320 1549 1559 1653 1351 1211 1305 1620 1685 1414 1650 1802 1898 1592 1638 1742 1487 1335 1204 867 755 735 706 693 672 672 673 682 670 670 751 894 1181 1264 1174 1243 1630 1597 1649 1484 1267 1356 1101 997 1163 1326 1531 1663 1791 1607 1335 1121 914 778 748 808 1047 1202 1104
197 300 449 521 499 501 551 489 460 430 257 177 147 132 113 101 100 100 100 100 97 101 98 102 102 103 128 121 125 130 129 134 138 140 136 139 136 142 146 143 148 145 141 139 139 139 137 138 139 133 135 132 138 127 123 119 123 125 126 127 131 128 124 123 123 123 123 123 123 122 124 124 125 128 127 128 124 125 125 125 128 124 125 127 125 129 131 129 129 128 129 130 131 132 133 135 135 137 138 140 142 145 146 149 151 154 155 157 160 162 164 167 169 169 171 177 177 177 177 178 184 185 186 189 189 192 195 197 199 199 202 203 203 202 204 206 209 213 216 219 222 227 232 235 239 242 246 254 256 260 266 271 277 280 284 289 294 299 306 313 319 327 333 342 350 360 367 376 385 393 401 410 420 427 434 442 446 454 461 467 474 479 483 487 488 490 487 486 493 502 510 521 528 534 556 550 562 550 551 552 548 541 539 520 520 524 543 547 589 540 524 528 533 547 579 581 571 569 613 655 702 806 880 1002 1153 1229 1243 1263 1312 1307 1484 1788 1889 2122 2486 1985 1838 2256 1999 2013 2357 1931 2077 1683 1576 1349 1342 1340 1686 1986 2222 1599 1791 2182 1898 1716 1829 1477 1428 1448 1645 1451 1321 1340 1389 1428 1462 1833 2280 2503 2142 2173 1893 1716 1503 1373 1394 1567 1955 1614 1817 1956 1623 1635 1851 1966 1757 1471 1521 1536 1541 1548 1811 1857 1915 2348 2583 2731 2677 2433 2316 2636 2427 1706 1462 1396 1362 1510 1541 1701 1306 836 820 819 1064 1630 1521 1485 1282 1287 1215 1012 938 871 850 854 859 866 854 867 917 961 1038 1247 1484 1485 1511 1343 1186 1076 941 985 1044 756 393 374 459 774 707 865 843 1039 1157 1282 1115 1158 940 820 711 495 366 300 314 300 283 286 287 289 332 364 350 316 357 364 356 415 447 513 561 614 826 915 985 1078 1364 1319 1243 882 495 347 430 437 541 635 658 628 693 725 669 613 521 508 487 507 475 430 635 657 682 765 717 717 822 821 829 868 896 886 809 763 832 838 836 742 577 712 703 726 784 888 942 995 1029 1053 1056 1042 1075 1060 1013 968 928 889 865 865 879 873 860 836 787 795 783 787 762 740 705 608 678 693 707 724 738 702 718 721 722 723 706 706 696 606 635 666 650 630 601 539 583 655 668 698 703 747 754 775 846 917 1042 1420 1149 1038 1336 1397 1173 1153 1452 1615 1535 1572 1354 1135 1086 1017 933 861 933 1171 1148 1011 1092 1059 986 1032 1018 991 951 931 904 901 896 875 901 910 952 1006 1021 1092 1039 1098 1115 1086 967 931 828 790 783 777 771 754 732 746 753 738 713 707 739 740 746 747 724 761 734 750 776 788 795 797 787 806 821 818 831 851 873 868 835 825 836 869 928 986 1119 1228 1204 1089 1158 1186 1200 1217 1286 1327 1414 1182 1067 1007 1000 1020 1152 1345 1312 1276 1156 1065 1090 1118 996 1099 1211 1293 1192 1118 1089 975 995 1091 1217 1262 1253 1267 1222 1166 1121 1086 1044 1062 1043 1048 992 998 988 976 965 1005 1109 1158 1009 972 956 869 838 776 751 752 767 784 786 779 780 780 780 839 851 848 830 882 895 903 918 914 910 922 943 962 971 996 978 935 892 877 859 858 853 832 820 816 814 843 826 855 854 844 836 844 839 834 859 901 920 923 915 853 836 829 808 820 818 815 815 767 812 826 822 838 845 862 844 818 805 804 786 821 860 860 905 930 980 1074 1074 1009 927 939 964 1004 1108 1235 1186 1366 1482 1355 1523 1187 1017 1176 1328 1468 1524 1302 1161 1400 1300 1446 1704 1311 1165 1358 1252 1425 1594 1713 1457 1562 1829 1481 1491 1250 995 856 864 784 747 723 683 682 695 673 670 675 850 920 917 991 1015 1125 1254 1336 1402 1588 1578 1576 1403 1154 992 1102 1201 1324 1435 1442 1531 1218 861 760 769 998 1164 1541 1215
210 280 389 492 517 382 404 456 338 243 217 175 150 105 100 100 100 100 99 96 96 101 100 101 101 130 130 130 132 127 137 136 138 140 136 145 140 142 146 143 146 144 142 141 141 148 143 142 142 140 135 134 131 126 121 123 125 126 126 131 128 128 126 124 124 124 124 123 125 123 123 127 125 125 133 135 126 124 125 125 126 125 126 126 127 128 128 128 130 129 130 131 133 133 134 136 138 139 140 142 143 145 148 149 152 154 158 159 161 165 166 168 171 171 173 184 187 185 181 180 182 188 190 192 193 194 197 200 202 234 205 206 205 206 205 207 211 215 219 223 228 232 235 240 245 249 252 256 261 264 270 275 282 287 291 295 300 306 312 320 327 335 345 351 359 367 375 385 394 402 412 420 431 440 446 451 459 466 474 480 486 492 496 499 501 502 501 498 502 510 517 523 545 552 556 560 577 578 566 570 572 557 556 554 547 548 537 539 548 565 527 531 535 540 545 549 554 558 562 564 592 726 794 862 850 864 900 984 1139 1262 1254 1506 1627 2312 2127 2185 2368 1884 1936 2181 2002 1638 1793 1504 1418 1396 1399 1407 1618 1856 2177 1850 2037 2026 1945 2126 1974 1621 1446 1333 1291 1275 1289 1340 1513 1759 1550 1825 2320 2044 1924 1969 1853 1880 1409 1332 1283 1688 2002 1497 1621 1849 1526 1490 1731 2008 1507 1480 1497 1502 1510 1542 1792 2130 2070 1842 2049 2427 2699 2541 2527 1964 1701 1592 1584 2062 2282 1941 1430 1171 944 789 795 788 867 1424 1248 1407 1580 1529 1546 1428 1246 1145 921 838 852 851 854 852 839 1272 1544 1452 1591 1456 1283 1281 1503 1409 1237 1165 1180 951 818 693 343 367 645 755 861 1148 1126 945 902 836 975 796 579 424 341 309 302 280 275 274 277 306 341 332 279 281 360 399 402 400 523 532 597 758 892 1019 1189 1296 1313 900 774 497 335 421 429 441 610 634 580 628 624 639 622 542 609 576 469 466 466 505 629 715 676 717 726 725 771 794 758 751 761 711 742 754 719 766 766 699 478 652 818 885 907 923 904 924 961 971 1015 1035 1053 1084 1079 1057 1018 972 928 887 770 801 779 752 703 719 718 711 691 603 611 635 676 697 710 714 713 694 700 692 714 720 717 703 633 578 635 616 604 594 541 580 625 645 655 666 668 694 754 791 855 957 1023 1005 1041 1007 1283 1033 993 1153 1355 1342 1303 1208 1121 1254 1213 1141 1056 859 915 942 982 884 975 991 992 955 941 924 905 897 898 918 917 916 919 949 986 1045 1075 1094 1097 1122 1106 1041 957 917 865 808 799 780 767 760 755 750 752 710 727 721 737 739 715 719 743 747 751 764 779 786 804 816 829 851 864 872 906 925 947 917 889 859 843 838 879 959 1113 1161 1223 1172 1166 1134 1078 1102 1162 1170 1215 1174 1227 1116 1011 1010 1119 1164 1125 1163 1195 1068 1056 1049 1213 1166 1240 1218 1149 1064 994 963 1073 1183 1331 1394 1361 1258 1183 1130 1113 1103 1128 1092 1057 1045 1056 1047 1033 971 944 975 1021 1126 1238 1158 1044 1034 994 915 816 821 748 779 787 816 824 795 837 872 893 894 927 838 877 954 983 953 918 892 929 948 976 976 968 960 932 893 873 851 846 845 842 843 825 845 833 840 834 838 824 829 819 822 830 865 871 913 875 826 813 817 799 811 817 807 806 761 758 811 808 808 826 824 826 806 779 781 830 905 912 865 872 943 1019 1138 1200 1078 952 942 994 1070 1074 1106 1150 1235 1118 1367 1093 1030 997 1212 1138 1206 1182 1352 1171 1204 1484 1367 1277 1186 1098 1163 1366 1610 1875 2015 1666 1252 1464 1532 1174 982 941 1125 1082 1046 876 785 752 760 740 707 668 682 821 881 806 803 890 919 949 991 1021 1085 1136 1248 1312 1285 1004 1111 1063 1004 1084 1049 1150 928 769 779 819 1142 1463 1563 1239
212 336 485 516 494 346 223 224 226 184 151 101 100 100 100 99 98 99 99 98 99 96 102 102 102 135 138 133 137 133 141 139 137 140 139 148 141 146 143 146 144 145 143 145 144 143 145 139 140 138 135 134 132 135 122 125 126 127 127 132 132 133 126 125 125 125 125 124 125 124 125 126 125 125 129 126 126 126 125 128 126 125 126 127 127 129 129 129 129 131 133 133 135 134 135 138 140 141 142 144 146 147 148 151 153 156 158 160 164 166 168 171 172 173 176 182 188 189 186 183 191 191 193 196 197 198 200 203 205 206 208 210 212 214 211 209 215 219 221 226 231 236 239 244 249 254 258 262 267 271 275 280 286 292 300 304 308 313 319 326 332 341 350 359 369 378 386 392 403 412 422 430 441 449 459 465 476 481 488 491 497 504 509 515 517 514 514 515 516 522 529 537 543 557 572 582 567 581 588 625 593 619 614 797 658 576 539 540 545 556 527 531 536 542 550 554 559 564 567 572 574 580 666 880 1029 1365 1109 1247 1378 1543 1624 1670 2365 1811 1859 1752 2034 1647 1668 1717 1821 1671 1553 1505 1464 1592 1509 1466 1634 1887 2094 2246 2642 2485 2519 2749 2589 2169 1576 1774 1260 1242 1241 1402 1937 2539 1850 1719 2099 2091 1789 1795 1681 1527 1426 1277 1268 1214 1658 1383 1486 1451 1421 1452 1894 1719 1467 1473 1465 1488 1505 1540 1593 1635 1721 1747 1827 1966 2146 2745 2681 2364 2202 1763 2003 2094 1859 1661 1470 1522 1273 732 760 779 761 1132 1112 1131 1251 1503 1228 1108 1038 947 781 815 828 830 836 833 1130 1464 1648 1393 1168 1587 1282 1052 1058 1477 1398 1110 930 839 829 781 408 328 483 678 826 1012 1225 1271 1154 855 660 567 445 339 271 261 272 261 266 268 287 290 272 275 275 372 408 391 434 508 597 654 750 810 876 1001 1005 1032 851 612 457 355 357 365 363 462 548 596 540 523 497 510 492 497 438 295 347 429 354 511 627 714 621 723 745 726 697 624 703 735 696 700 735 781 735 689 684 604 464 722 728 855 908 1008 1008 957 941 951 1011 1036 1158 1152 1143 1064 993 949 895 851 784 718 657 671 634 578 583 606 510 559 635 654 676 687 662 608 610 617 659 677 673 657 649 629 469 476 490 486 516 517 611 621 601 620 640 648 666 676 705 787 861 873 839 841 822 821 828 897 1148 1128 1203 1118 1089 1058 1204 1023 1098 938 845 805 808 843 835 834 911 999 1010 978 962 916 947 953 960 963 971 992 984 990 1040 1010 1087 1112 1141 1117 1072 1032 1070 970 917 851 831 786 779 769 761 740 748 746 717 705 708 709 711 745 746 752 774 792 857 910 927 920 922 923 932 943 996 1041 1046 1008 989 1000 959 889 876 877 901 1034 1212 1202 1174 1087 1086 979 1036 1013 1037 1107 1058 1000 1004 1065 1102 1150 1009 1056 1028 975 950 971 989 1039 1058 1084 1071 1024 950 969 1075 1182 1259 1339 1300 1219 1182 1127 1183 1172 1149 1114 1093 1059 1060 1137 1115 1043 1020 975 991 1099 1128 1137 1035 919 858 856 808 773 743 815 865 847 828 874 884 903 913 912 946 890 852 967 957 888 893 884 911 936 933 949 968 937 920 916 889 865 850 849 847 850 837 836 821 801 813 819 814 810 827 809 814 833 842 852 828 810 799 796 793 803 800 798 804 796 752 800 795 800 845 859 830 787 782 804 836 865 898 868 881 978 1065 1069 1085 977 900 975 1087 1310 1320 1183 1144 1163 1046 972 942 983 1038 1060 1109 1299 1531 1354 1235 1093 1264 1502 1435 1170 1048 1051 1054 1164 1313 1343 1562 1174 1221 1031 983 1169 1259 1275 1362 1287 1102 841 859 783 1005 715 668 712 785 800 862 862 816 850 866 882 892 897 937 952 1001 981 953 1181 1044 924 885 860 829 781 788 788 842 1036 1234 1699 1417
229 295 388 425 389 291 219 173 146 127 110 100 99 99 99 98 98 95 95 95 96 101 104 106 128 124 127 134 135 135 137 139 140 135 136 141 152 148 144 147 144 147 144 143 148 143 140 140 141 139 142 134 135 130 126 128 127 129 131 129 131 129 137 135 126 127 126 126 126 127 127 127 126 126 127 127 127 126 128 128 127 128 128 128 128 130 129 128 132 133 134 135 136 138 143 145 139 142 144 146 147 150 151 152 157 157 159 162 164 167 170 173 176 175 179 181 186 191 191 190 187 193 195 198 200 203 204 207 208 211 212 216 220 222 221 217 222 227 232 235 238 238 242 246 253 258 263 268 272 277 281 286 291 297 304 314 318 322 326 332 340 349 358 366 375 386 396 404 412 422 431 439 450 459 470 479 486 501 503 506 510 515 522 529 532 532 534 539 533 538 544 559 570 575 596 612 581 597 610 631 640 721 752 603 843 877 634 582 566 560 535 540 548 540 569 571 562 569 575 579 581 583 599 688 905 1013 1239 1434 1571 1858 1755 1845 1528 1946 1573 1610 1569 1355 1648 1815 2183 1868 1566 1549 1751 1979 1946 1538 1613 1728 1909 2588 2518 2454 2398 2292 2238 2019 1795 1611 1272 1208 1203 1394 1720 1674 2249 2139 2684 2768 1787 1659 1454 1396 1318 1260 1233 1232 1295 1269 1212 1227 1360 1723 1951 1614 1419 1426 1412 1433 1539 1848 1728 1775 1736 1840 1812 2173 2508 2164 2109 2940 2136 2241 2494 2259 1909 1986 2142 1856 1215 747 737 730 709 948 753 1041 1200 1414 1208 1117 1020 848 807 810 819 811 808 891 1266 1236 1314 1646 1221 1016 1510 1255 816 1168 1272 1221 1227 1001 854 704 397 317 428 610 770 1045 1169 955 1029 717 529 393 311 335 269 275 251 255 260 262 274 293 269 269 385 414 367 482 571 654 784 802 861 934 931 934 966 843 576 443 383 339 276 376 416 453 415 304 310 289 279 270 244 276 369 411 419 392 314 258 537 566 586 584 628 659 538 578 671 741 765 658 771 737 684 616 530 453 382 529 586 642 737 859 993 1091 985 1019 997 1024 1127 1073 1083 1040 924 899 855 773 747 727 713 685 597 469 445 446 467 570 639 622 604 507 543 546 535 463 464 464 466 481 590 640 621 647 648 632 567 598 519 477 547 604 634 635 658 684 700 704 779 810 814 802 776 773 781 815 872 983 943 953 1016 1051 956 927 815 764 838 940 1048 1073 975 914 867 902 938 949 933 978 997 1019 1047 1066 1062 1047 1045 1048 1050 1034 1093 1125 1089 1093 1097 1092 1069 1050 955 926 849 812 777 788 734 734 745 743 704 712 732 745 747 748 760 788 914 1012 1106 1149 1105 1038 1019 1017 1047 1032 994 1074 1086 1067 1069 1092 1023 988 945 925 871 900 921 917 933 926 938 946 925 912 924 940 948 952 929 927 948 960 946 941 940 949 958 951 958 978 1004 1035 1017 991 954 944 1011 1052 1104 1189 1130 1181 1185 1178 1236 1149 1077 1052 1009 999 992 1044 1118 1154 1004 993 889 948 961 950 914 912 844 848 866 779 750 800 882 917 886 915 1039 1031 983 966 908 834 891 854 935 987 893 836 904 988 942 930 946 933 903 886 869 860 857 845 846 841 840 820 810 779 795 804 804 802 830 817 810 809 811 808 798 796 796 787 785 789 788 792 787 787 776 745 744 806 860 860 801 759 794 817 840 826 850 837 905 1058 1005 1070 994 884 961 1028 1073 1210 1248 1103 954 919 910 953 1096 1216 1187 1532 1301 1300 1586 1439 1315 1102 1037 1351 1296 1062 996 1074 1190 1103 1035 1061 1026 994 1002 1217 1359 1464 1360 1543 1387 1273 1062 868 780 769 963 712 667 673 726 891 846 858 942 1276 1244 1155 993 948 947 961 951 926 876 875 870 822 813 797 804 823 809 801 817 1109 1167 1452 1500
225 273 229 257 246 188 160 144 127 152 100 99 98 97 98 98 94 98 100 109 147 139 108 105 117 122 121 128 128 125 131 138 129 139 140 144 143 146 145 146 155 145 143 146 147 143 143 144 145 144 141 141 133 124 129 132 128 130 130 130 130 131 131 129 127 127 127 128 127 127 128 128 127 130 128 128 127 127 127 128 130 129 129 131 133 135 129 131 131 132 133 134 136 138 139 140 142 144 146 145 148 151 153 155 157 158 163 164 167 169 172 173 177 179 180 183 186 192 193 190 191 192 197 200 203 206 209 210 212 215 218 221 226 227 230 244 235 234 243 245 248 248 249 248 254 260 268 272 277 283 287 291 297 303 311 318 325 330 337 342 346 355 364 372 382 393 403 415 423 431 441 451 460 471 482 490 501 513 518 521 530 528 534 542 548 550 551 551 562 559 568 584 606 615 635 679 742 737 851 971 747 963 1008 859 616 651 650 660 638 631 645 675 713 762 794 836 775 715 630 586 589 590 597 628 741 1023 1290 1544 1493 1549 1558 1542 1410 1642 1425 1336 1270 1614 2175 2428 1887 1657 1610 1600 2265 2644 1839 1934 1664 2077 2381 3000 2738 2431 2399 2306 2228 2170 2281 1758 1497 1170 1156 1203 1451 1542 1928 1896 2592 2376 1832 1579 1514 1575 1675 1211 1202 1210 1152 1157 1230 1480 1847 2069 1593 1370 1380 1382 1387 1383 1645 1843 2384 2223 2360 2192 2129 2534 2290 1568 1771 2412 2164 2259 2085 1729 1474 1605 1512 1101 863 733 702 714 693 663 843 1066 1245 1309 1199 1106 1032 803 784 785 787 804 796 1194 1074 1298 1666 1529 1172 845 1370 1403 1099 764 1020 1221 1115 1008 965 768 431 310 463 494 676 1034 1108 923 850 567 387 324 288 298 272 243 251 250 253 255 257 260 308 394 415 356 453 620 713 791 872 923 960 970 1019 969 753 558 452 401 367 257 379 416 397 291 232 259 262 303 309 318 336 424 453 506 525 535 541 495 262 334 437 305 380 484 585 534 556 678 719 574 639 565 484 507 350 632 597 572 490 427 623 755 943 1057 1076 1024 975 996 1020 1044 1038 952 859 797 757 730 671 593 618 483 431 489 564 604 618 577 639 685 726 707 700 694 688 696 701 706 708 723 733 709 698 683 682 681 680 663 559 620 539 480 482 483 528 599 656 726 730 724 755 748 751 839 803 790 793 821 842 877 942 944 951 829 783 889 1130 1217 1333 1255 1086 1070 973 1017 952 996 960 1100 1168 1161 1147 1155 1120 1089 1078 1051 1040 1062 1102 1118 1108 1123 1130 1125 1094 1061 1019 954 880 821 772 751 718 738 745 736 743 700 749 750 757 770 789 854 1038 1233 1225 1315 1253 1135 1095 1106 1112 1067 1068 1089 1104 1095 1146 1210 1133 1060 1053 984 925 896 1126 1098 1072 1132 1078 1146 1098 993 923 913 892 880 920 920 939 957 941 961 974 1011 1047 1074 1059 1039 1041 1005 983 999 917 893 902 928 976 981 991 990 999 1043 1049 1044 993 980 946 927 936 974 945 896 854 824 826 856 871 872 858 828 812 805 800 775 748 760 835 927 914 929 869 889 885 869 834 830 840 800 831 854 840 813 866 961 995 945 923 901 913 872 863 857 882 848 837 834 832 815 807 810 778 790 795 802 795 819 801 802 830 809 800 794 789 776 777 775 774 775 780 777 770 767 735 733 829 829 784 753 799 826 849 834 808 845 877 918 1000 999 896 923 996 1107 1156 1055 1130 934 879 980 1154 1139 1252 1286 1514 1462 1253 1209 1167 1114 1112 1177 1096 1033 967 947 1048 1266 1483 1651 1321 1188 1019 1063 1423 1510 1396 1887 1594 1542 1359 1394 1182 915 760 705 676 665 665 690 745 943 1143 1205 972 1217 1377 1179 1299 1177 1044 1037 1088 931 863 844 830 838 819 804 815 861 836 815 823 897 1017 1232 1478
158 213 198 202 166 138 126 128 100 100 99 98 98 98 97 94 94 100 99 101 133 134 110 109 102 106 114 117 108 126 135 137 135 139 139 146 142 146 146 145 148 145 145 144 150 144 146 144 145 142 143 136 124 125 130 130 131 131 132 131 130 132 129 132 129 128 128 128 128 128 129 130 130 128 129 128 128 128 128 129 129 129 132 130 132 136 132 133 132 133 134 134 135 136 139 141 142 144 146 147 151 152 154 156 157 160 162 165 168 172 173 178 180 182 184 186 189 191 193 196 199 195 204 202 206 211 212 214 216 219 221 224 228 233 235 240 245 255 261 257 256 259 257 254 259 264 270 276 285 288 294 300 304 309 315 322 328 335 342 351 355 359 370 378 389 400 410 421 431 442 451 460 472 483 493 502 514 524 531 539 551 550 547 556 562 565 569 573 576 588 605 607 638 670 740 800 750 961 1070 1197 927 1023 1175 856 718 655 678 705 704 763 984 988 1014 876 1024 1142 1266 1197 1094 812 612 601 604 615 671 937 1225 1388 1502 1313 1669 1611 1350 1223 1040 1155 1344 1574 1832 2266 2256 1756 1669 1669 2042 2152 2017 2270 1878 2563 2931 2482 2545 2532 2510 1935 1925 2444 1661 1460 1243 1134 1128 1136 1387 1359 1449 1630 2038 1872 2432 1849 2156 2000 1578 1201 1181 1181 1181 1239 1501 1641 1841 1917 1531 1354 1342 1346 1358 1365 1405 1501 1588 1667 2394 2992 1943 2016 2225 1473 1493 1701 1944 2155 2352 1595 1136 1061 1000 927 972 868 675 677 670 652 689 1001 1359 1353 1279 1098 977 752 772 773 780 775 795 1306 1260 931 904 884 769 1126 1310 1203 1170 1023 718 1025 1053 945 890 744 407 303 574 458 447 605 1018 819 585 388 328 266 264 274 237 239 241 245 248 326 256 355 386 379 325 429 580 619 763 896 977 1059 1073 1036 841 648 534 455 413 379 343 292 376 308 238 242 296 408 446 461 470 455 451 418 438 492 489 501 501 492 472 548 552 470 532 474 308 391 422 387 435 459 359 509 521 529 626 712 758 680 612 388 570 706 902 985 1066 941 917 900 969 970 907 851 798 760 767 743 694 656 527 426 520 572 612 667 749 728 724 758 788 736 711 711 742 732 734 724 729 742 724 706 691 690 691 695 693 683 676 674 676 677 659 578 539 530 492 490 596 661 690 802 849 835 799 854 773 845 881 832 846 795 659 739 914 1194 1300 1362 1413 1254 1120 1035 1099 1192 1187 1155 1018 1049 1103 1098 1086 1091 1110 1120 1101 1069 1078 1081 1092 1103 1111 1152 1123 1125 1117 1081 1052 1010 923 808 759 734 728 697 715 742 729 757 754 758 774 790 832 895 964 1056 1169 1290 1340 1205 1161 1307 1289 1074 1194 1241 1172 1212 1231 1191 1111 1022 1016 863 1012 1140 1213 1197 1223 1272 1337 1254 1185 1173 1110 883 871 889 960 914 942 960 1006 1096 1134 1150 1207 1205 1207 1203 1186 1160 1116 1048 1019 974 904 890 922 918 912 922 938 940 955 956 948 930 923 907 904 903 881 855 822 851 847 830 812 807 806 808 819 819 811 810 780 739 794 843 970 982 972 858 843 853 846 806 783 770 772 783 785 801 833 895 899 1088 1089 968 877 873 859 841 832 822 821 819 807 791 786 791 791 761 776 800 792 800 812 781 795 769 771 768 764 769 769 768 780 784 799 810 809 799 801 765 750 791 761 749 794 860 819 792 807 859 910 938 938 868 840 940 1078 1110 1047 1087 911 876 917 981 1042 1145 1275 1511 1326 1311 1101 1333 1451 1346 1191 1416 1081 1096 958 972 1233 1369 1452 1417 1267 1057 972 1337 1491 1583 1538 1500 1519 1479 1559 1186 1069 860 729 665 664 675 687 709 862 934 834 923 915 979 1101 1248 1240 1187 1136 1164 1268 899 860 844 845 851 842 820 820 840 835 871 889 864 927 1048 1266
204 149 149 130 142 121 108 101 99 99 99 98 97 97 94 97 98 97 101 132 133 149 145 119 111 112 109 111 110 113 129 131 140 141 144 141 145 145 146 148 150 147 144 150 144 145 148 144 148 143 145 129 126 128 137 132 133 136 132 132 132 130 131 129 130 130 129 130 129 130 128 130 131 129 129 129 129 129 129 129 131 130 131 131 131 132 135 136 134 135 133 135 135 138 139 140 142 145 145 148 151 153 155 157 160 163 164 166 169 172 175 179 182 183 187 188 190 193 195 197 200 198 201 209 227 239 216 218 220 223 225 227 230 236 242 246 249 254 259 265 266 268 279 266 272 270 275 280 287 293 299 306 310 315 322 327 334 342 349 354 363 368 375 385 396 406 417 427 438 451 462 472 481 492 502 512 525 537 545 553 559 577 562 567 575 583 591 597 609 611 662 714 768 739 857 1053 991 810 983 1128 1267 1265 1026 942 768 649 761 878 1020 1132 1080 942 1026 1141 1237 1368 1618 1473 1357 967 822 610 621 629 639 851 1130 1255 1400 1225 1210 1152 999 1068 1309 1494 1762 1818 2234 2067 1816 1790 1740 1713 1778 1896 2711 2598 2698 2751 3168 2426 1994 2058 2408 1797 1690 1869 1791 1285 1233 1102 1084 1067 1448 1790 2160 2556 2043 1715 2139 1884 1818 1609 1436 1159 1153 1159 1181 1261 1330 1421 1563 1879 1434 1286 1321 1319 1329 1510 1748 1941 1945 2022 2578 1944 1711 1518 2031 1914 1358 1448 1913 2144 2012 2130 1441 1432 1486 1521 1470 1163 738 643 644 637 625 704 869 1167 1154 1021 907 722 756 767 758 757 774 1152 1607 1430 1265 961 709 711 727 910 1071 1161 670 880 930 870 744 614 413 306 564 591 353 398 613 586 413 326 251 239 296 236 232 237 239 291 327 341 372 371 409 477 494 593 711 752 689 849 951 869 721 690 658 553 459 445 404 367 305 239 238 236 225 368 444 517 586 626 675 726 616 489 509 523 555 579 575 557 557 708 628 511 624 601 604 557 561 568 565 606 475 623 687 649 664 664 666 670 648 502 560 714 853 945 1008 936 909 800 866 828 807 766 756 739 760 745 692 609 446 461 607 644 663 651 641 694 711 723 706 696 704 713 732 706 715 728 724 695 697 714 716 727 742 728 722 718 731 756 764 751 745 728 704 678 654 581 521 581 679 840 767 661 615 671 707 742 766 785 760 647 781 814 1052 1162 1209 1221 1364 1396 1190 1111 1211 1272 1209 1179 1125 1063 982 1056 1060 1072 1086 1095 1102 1049 1098 1104 1098 1099 1102 1114 1147 1161 1134 1143 1114 1026 929 802 758 730 711 744 708 705 718 765 763 770 794 817 868 855 944 1004 1112 1259 1407 1363 1298 1419 1242 1191 1255 1316 1261 1151 1079 1048 1014 980 947 869 895 943 1049 1045 1175 1190 1223 1165 1143 1151 994 902 888 936 936 870 996 1213 1337 1413 1410 1531 1544 1270 1504 1500 1416 1269 1365 1287 1164 1057 1019 998 981 899 885 882 896 921 946 979 980 964 952 906 875 870 884 879 828 899 936 965 947 920 878 881 892 919 947 880 824 763 744 785 844 885 913 878 824 811 805 788 787 772 762 768 771 776 801 822 836 910 951 870 836 835 811 807 804 805 801 799 795 797 784 784 782 757 789 813 808 792 804 786 769 780 779 765 763 761 762 781 803 818 842 870 876 845 830 790 723 780 730 757 767 816 802 785 814 853 930 874 864 850 856 920 1007 1013 999 950 845 883 958 1055 1060 1279 1349 1299 1229 1142 1073 1419 1231 1176 1176 1267 1122 983 881 986 1195 1667 1502 1277 1099 948 1034 1217 1534 1433 1202 1034 1261 1183 1388 1092 787 792 662 662 692 754 768 706 1046 1223 1098 1189 1093 1305 1145 1071 1386 1383 1108 1001 928 886 857 870 881 869 861 857 832 838 867 861 925 971 867 923 1025
162 141 142 129 130 138 109 124 99 98 98 98 98 96 96 94 94 99 101 138 139 155 140 128 122 147 142 155 139 116 112 113 137 142 141 145 141 144 146 143 147 144 147 149 148 146 146 149 144 142 141 128 130 133 133 133 133 133 131 131 134 132 131 130 132 131 130 130 130 130 131 130 129 130 130 130 132 130 130 131 132 131 133 132 133 134 134 138 138 135 134 136 137 140 141 142 145 146 147 149 152 154 157 159 160 164 168 168 169 173 175 179 185 186 189 191 193 196 198 199 203 205 203 249 236 229 222 223 223 227 229 231 235 241 245 251 256 261 267 273 277 278 281 297 284 284 284 290 294 299 304 310 315 320 328 334 341 349 353 362 367 377 383 391 401 410 422 432 444 456 468 481 491 502 512 524 537 547 558 567 573 600 582 594 590 597 580 620 631 648 753 761 831 835 1026 1253 1113 975 1072 1163 1201 987 868 860 727 683 680 768 840 917 877 981 961 1015 936 1152 1279 1294 1076 1254 957 657 629 639 651 745 1099 1097 1182 955 816 838 1140 1495 1841 1814 1916 2071 2012 2181 1949 2116 2508 1975 2310 2558 2458 2328 1961 2568 2367 1909 1890 1968 2468 1820 1609 1573 1411 1340 1669 1131 1027 1036 1152 1202 1486 1599 1508 1752 1916 1959 1521 1270 1117 1134 1141 1152 1160 1226 1300 1465 1945 1483 1299 1283 1298 1286 1295 1332 1377 1495 1593 1876 1924 1884 1893 1402 1666 1468 1214 1318 1583 1784 1854 2121 1902 1854 1450 1359 1155 778 827 711 625 624 611 615 784 1167 1431 1215 947 751 741 745 750 740 734 1070 1085 1144 1198 1034 916 880 827 705 590 607 692 988 980 899 882 907 635 304 362 602 660 342 456 409 307 270 245 252 226 227 237 237 299 316 341 348 345 313 358 417 438 431 446 472 474 471 510 534 528 565 531 483 444 439 312 237 218 217 219 306 372 537 743 736 800 826 924 931 885 632 867 917 928 924 895 857 809 752 624 669 703 779 654 690 759 799 788 767 594 717 710 694 812 839 720 761 711 566 514 615 761 796 854 840 805 798 605 673 731 685 637 676 708 665 602 468 436 597 649 723 746 760 719 691 687 687 688 686 683 677 677 724 717 700 699 710 736 796 845 828 758 756 786 956 1137 1040 1077 1008 949 892 847 901 817 802 696 537 529 499 563 529 557 512 511 559 621 662 679 591 710 731 781 895 1128 1199 1234 1169 1214 1221 1218 1188 1171 1152 1132 1100 1083 1059 993 1025 1000 1032 997 1059 1127 1122 1119 1112 1127 1134 1130 1149 1178 1187 1141 1059 951 812 738 719 738 749 740 729 740 758 792 847 900 931 978 970 932 976 1042 1243 1425 1517 1567 1498 1384 1297 1281 1217 1195 1196 1180 1167 1151 1136 1107 1054 903 853 857 988 1050 1084 1114 1024 956 908 866 843 890 977 888 829 942 1038 1092 1126 1191 1326 1409 1532 1552 1453 1399 1394 1351 1317 1158 1287 1273 1162 1201 1153 1037 901 864 1003 1112 1134 1113 1120 1083 1034 955 920 922 898 825 885 966 1018 999 965 948 944 904 893 884 862 829 818 737 755 777 798 815 842 816 806 796 778 780 775 757 750 752 759 823 810 803 810 820 808 806 809 816 802 803 808 820 819 813 792 777 777 789 752 777 818 816 791 789 774 766 769 760 753 754 754 762 796 829 858 869 875 874 863 836 806 778 717 754 758 759 761 765 781 835 873 863 804 814 863 803 927 1033 1038 904 863 835 953 1309 1308 1315 1333 1192 1087 1207 1224 1035 1229 1253 1097 1347 1321 1197 979 877 1067 1098 1379 1526 1153 1026 901 1198 1344 1338 1564 1348 1265 899 1207 926 760 796 666 663 748 911 1112 1122 858 727 971 914 1218 1176 1257 1431 1233 1084 1038 1150 1160 1080 885 881 910 1039 890 929 876 877 849 873 910 984 1293 1214 1090 936
140 142 120 115 117 111 128 133 99 98 97 94 97 95 95 95 95 106 112 149 151 140 131 141 130 128 145 153 140 151 118 116 114 114 147 141 137 146 145 142 145 150 150 149 149 146 148 147 142 138 132 130 128 133 138 134 134 135 134 133 135 131 132 132 133 132 132 132 132 131 131 130 133 131 131 131 133 133 131 132 133 134 134 134 135 136 137 138 138 136 134 136 139 140 141 142 144 146 148 150 153 155 155 159 161 165 168 172 174 176 177 180 184 187 190 195 199 200 201 202 203 206 209 206 209 223 227 228 228 231 233 236 236 244 252 258 263 268 274 280 285 288 289 294 304 314 301 302 303 306 312 317 323 329 333 341 348 355 361 368 376 383 391 398 408 416 427 435 448 459 473 485 498 510 520 534 545 557 568 582 591 598 611 629 614 620 626 638 682 680 857 954 921 1192 1117 964 1236 1241 1509 1155 1005 940 748 781 842 726 1026 884 766 876 798 841 808 815 870 1094 1079 976 1170 1219 1127 713 623 635 887 671 706 823 742 888 1232 1350 1058 1207 1492 1765 2038 1738 1839 2254 2086 2135 2393 2364 2484 2804 2726 2144 1853 2038 2128 2009 1772 2027 2495 1857 1926 1589 1550 1723 1466 1033 997 1002 1212 1626 1413 1518 1756 2063 1406 1277 1126 1095 1122 1125 1133 1173 1202 1301 1596 2006 1683 1440 1249 1277 1270 1272 1268 1610 1835 1798 1711 1694 1788 1862 2317 1316 1230 1135 1140 1429 1665 1898 1510 1594 1798 1473 1278 1287 994 926 1020 886 692 589 622 568 560 676 1073 1127 927 743 721 722 715 713 707 700 696 1184 1528 1233 1276 1032 988 1020 798 536 716 906 1014 1047 1137 973 689 401 336 481 563 342 366 318 273 214 219 221 222 227 232 241 327 333 341 256 264 321 535 556 647 686 649 589 594 533 483 483 492 519 479 468 440 376 234 213 237 348 367 449 665 816 819 878 917 966 1013 1020 932 765 988 1015 1003 957 944 931 917 748 720 807 688 748 722 792 877 923 912 908 765 635 776 822 894 1003 786 741 674 552 451 587 587 607 630 640 620 560 494 603 622 593 541 571 596 595 517 424 441 552 622 661 668 697 766 713 725 724 710 691 686 690 696 694 694 698 707 742 846 947 800 781 799 850 1085 1031 1073 1159 1197 1294 1196 1073 1095 1111 920 814 831 806 732 658 626 740 773 734 528 538 542 548 522 521 522 535 697 829 900 984 1027 1087 1141 1294 1297 1258 1223 1196 1173 1140 1078 1051 1078 1073 1070 1025 974 1007 1049 1115 1139 1141 1143 1113 1106 1154 1207 1230 1122 1056 973 835 730 706 744 744 739 736 743 788 831 888 979 1045 1086 1076 1035 995 971 1016 1144 1264 1375 1512 1338 1283 1251 1252 1274 1264 1315 1282 1275 1233 1199 1092 981 891 850 887 910 968 977 967 837 843 827 930 1090 1108 913 803 868 883 953 1042 1098 1182 1300 1259 1233 1218 1139 1131 1176 1023 1079 1041 1053 1018 1084 1009 864 801 870 946 1021 1119 1188 1166 1211 1145 1050 1014 956 866 819 950 1126 1172 1135 1034 1091 1045 951 906 875 842 804 794 763 755 763 767 776 783 800 833 820 799 791 800 797 753 738 744 801 806 807 798 807 796 801 803 816 800 793 801 807 799 786 776 764 767 744 741 770 785 800 780 773 765 764 772 783 751 755 776 763 799 837 856 864 887 903 885 867 809 780 756 701 737 741 746 755 783 837 843 804 765 843 901 912 812 954 969 855 840 910 1170 1352 1367 1334 1325 1268 1046 1134 1074 968 1249 1080 1126 1202 1228 1142 978 836 1014 1409 1297 1147 1045 963 873 1188 1145 1346 1298 1302 1057 981 849 850 923 688 660 680 936 1261 1339 1292 1179 1068 768 806 918 1153 1100 1251 1478 1445 1266 1291 1017 920 882 934 1191 1137 981 1263 1053 964 906 877 883 981 1021 1069 1053 1069
133 130 144 145 151 157 126 133 115 97 92 97 97 96 95 96 96 97 111 165 146 145 140 143 121 135 149 148 141 155 157 122 119 114 121 143 146 145 146 147 147 145 148 150 149 151 149 143 137 141 137 130 133 136 136 139 140 141 137 134 134 132 133 134 133 133 133 133 133 133 132 132 134 132 132 132 133 135 132 133 135 133 135 135 137 136 138 139 140 139 138 139 139 139 141 143 146 149 151 153 155 157 160 165 167 168 170 177 176 179 182 183 186 188 192 196 201 201 228 205 210 208 210 212 211 215 229 233 234 234 238 241 241 242 255 268 269 274 279 285 291 298 298 304 306 313 320 317 315 318 320 327 331 336 341 348 354 363 370 376 383 391 398 406 410 422 432 442 453 464 478 490 503 516 528 539 553 566 577 590 605 608 628 654 677 664 658 649 656 713 946 1092 1266 1189 1329 1263 1286 1132 1152 985 872 846 891 1103 933 811 870 954 860 747 982 858 993 942 1009 919 1043 947 1038 1248 952 701 632 683 897 960 705 979 1040 1413 1545 1337 1429 1534 1759 1604 1511 1569 1676 1875 2431 2094 1853 1894 1982 1882 1822 2029 1684 1740 1943 2016 1701 1899 2311 1720 1676 1529 1772 1351 1081 1014 979 958 929 1242 1297 1525 1501 1761 1290 1059 1072 1091 1103 1103 1101 1150 1345 1551 1696 1941 1507 1303 1233 1243 1250 1251 1258 1388 1615 1655 1782 2005 1961 2367 1700 1495 1512 1094 1047 1202 1258 1592 1191 1359 1659 1920 1297 1372 1156 1398 1091 749 758 655 549 571 552 531 648 814 963 1043 702 702 700 669 688 662 986 961 944 853 1112 1457 1211 1047 872 514 711 797 841 1009 1038 1003 643 418 281 466 442 345 300 273 211 214 215 218 219 225 224 278 307 253 242 275 323 624 752 826 800 702 693 655 658 592 483 438 480 488 469 430 400 292 212 221 259 403 757 902 921 928 888 939 991 1037 1095 993 795 987 1083 1041 1082 1031 988 863 737 739 846 836 774 855 892 889 838 892 901 995 926 619 899 938 971 1026 877 791 856 682 459 450 403 474 402 395 400 430 400 402 403 405 410 412 461 445 433 445 602 638 657 665 619 670 676 662 645 667 640 672 704 701 697 692 701 711 729 777 796 763 794 860 935 1161 1298 1229 1196 1227 1290 1303 1183 1101 1018 969 1109 1047 939 985 891 828 705 834 833 733 587 699 724 791 798 698 664 658 532 543 653 732 803 845 942 975 971 1001 1038 1089 1082 1077 1079 1110 1059 1014 1003 1003 1013 915 1006 1032 1052 1115 1075 1034 1081 1140 1233 1319 1134 1064 967 882 729 693 741 736 737 732 742 773 813 887 956 1011 1069 1101 1152 1105 1033 988 977 1012 1146 1265 1174 1137 1094 1080 1069 1059 1061 1048 1013 977 952 910 891 862 854 859 916 936 898 897 832 811 822 866 920 910 865 780 844 1004 1100 1084 1083 1071 1070 1056 1034 1017 974 953 968 1042 976 933 960 922 918 886 836 788 881 989 1092 1171 1190 1085 1054 1045 1258 1186 992 852 819 901 1001 1136 1178 1084 998 975 924 892 885 863 810 778 765 751 737 751 766 783 786 787 790 784 783 812 792 770 743 742 747 767 788 791 787 788 788 803 806 790 791 781 779 771 760 760 752 737 736 751 772 765 762 765 769 771 777 778 771 762 742 746 771 789 850 909 889 892 905 929 1022 888 757 742 695 727 711 722 751 789 808 790 791 821 861 905 922 822 857 853 808 878 815 1038 1109 1129 1169 1253 1161 881 860 846 916 1223 1039 1045 1213 1278 1358 999 818 906 1158 1252 1326 1314 1085 842 946 1183 1046 1008 965 883 809 862 750 732 680 661 726 1105 1253 1224 1198 1180 1045 898 773 936 1125 1296 1305 1221 1496 1102 994 942 899 917 1306 1202 967 1127 1220 1175 1083 924 879 902 935 1216 1392 1411 1063
151 148 146 139 128 130 144 135 100 97 96 92 95 96 96 96 97 97 106 146 137 157 146 126 131 135 149 159 136 148 143 123 122 117 117 141 134 140 139 145 142 144 151 152 148 144 146 146 140 141 138 131 135 135 137 138 142 138 140 141 135 135 135 135 135 135 135 135 134 134 133 133 133 136 134 133 133 133 134 135 134 133 136 137 136 137 141 141 142 141 139 140 142 142 141 147 152 156 154 159 159 161 164 165 168 173 174 176 180 183 186 188 191 188 191 195 201 206 209 208 213 216 212 214 215 215 218 237 241 252 264 255 246 272 283 299 295 313 305 291 299 305 309 311 339 331 323 328 331 329 334 339 341 346 350 356 362 371 380 389 393 401 411 417 423 426 436 447 457 468 478 489 504 517 530 543 558 571 585 598 612 621 659 690 720 739 696 671 629 677 750 791 906 959 1281 1100 1124 948 1164 1142 1090 967 1120 962 807 869 760 828 950 993 787 842 957 937 1002 1002 1096 1031 1370 1101 854 704 639 832 1268 838 912 1368 1642 1299 1243 1192 1263 1320 1734 1433 1460 1843 1938 2117 2051 2041 1769 2135 2345 2172 1671 1618 1565 1715 1962 1609 1623 1762 2061 1907 1773 1603 1347 1219 1521 1196 1151 917 910 984 1574 1577 1313 1188 1036 1052 1046 1071 1089 1101 1114 1215 1221 1299 1617 1735 1553 1216 1208 1194 1220 1216 1436 1395 1442 1568 1762 1840 1801 2391 2055 1900 1573 1218 982 895 862 890 926 1372 1334 1605 1551 1605 1449 1300 857 944 1036 860 713 514 549 527 516 582 1031 1249 925 676 679 682 658 662 585 565 533 749 963 1108 1081 985 883 525 545 638 792 903 1024 1295 843 479 280 387 347 402 262 207 210 210 211 213 218 270 280 255 238 262 296 478 654 757 805 880 787 788 727 699 599 553 457 433 479 452 382 374 385 218 216 228 297 424 439 705 657 740 937 993 1007 1014 988 974 984 915 1011 1038 1048 1028 971 894 916 916 936 911 895 950 1040 1082 1107 1023 931 953 966 722 931 1026 966 941 939 868 836 749 612 639 630 616 658 696 724 691 599 560 634 618 583 550 438 465 485 592 660 707 718 726 720 695 612 648 682 696 701 704 713 716 737 746 754 767 779 783 759 814 879 953 982 1224 1090 1146 1291 1313 1419 1335 1235 1215 1082 1019 1074 1111 954 918 832 815 832 813 833 657 692 800 793 930 989 899 846 891 861 689 560 536 533 535 557 691 882 998 1140 1143 1102 1104 1136 1097 1044 1016 983 952 951 974 1006 991 987 1034 1052 997 1074 1136 1234 1144 1102 1049 963 851 745 696 741 744 724 724 739 754 805 862 918 998 1048 1067 1080 1087 1099 1098 1000 1047 1117 983 999 959 1062 1035 899 877 856 855 859 841 830 835 829 827 837 826 835 839 830 829 803 811 812 825 866 847 819 764 802 867 1005 1152 1117 1059 1064 986 884 896 866 871 886 912 919 890 876 874 873 834 803 803 868 941 1000 975 983 973 947 978 1037 1035 984 928 839 823 899 962 997 994 974 932 918 891 903 876 838 782 765 759 759 735 752 772 777 789 792 818 829 824 814 768 748 733 742 754 777 788 776 777 790 792 789 774 772 761 757 753 742 747 740 727 745 746 759 758 768 767 765 768 763 756 750 740 737 735 752 753 778 811 803 784 814 802 783 745 738 734 688 696 735 740 735 744 767 800 824 863 886 934 908 829 755 750 761 773 803 863 947 893 1053 986 926 904 1198 1106 902 969 968 870 902 1077 1063 897 800 811 1070 1166 959 943 867 920 865 926 836 853 954 943 984 947 799 687 668 660 720 904 1043 1119 1108 1018 956 853 861 801 946 1181 1110 996 952 886 877 951 981 952 984 1037 1023 1123 1288 1153 1104 1045 917 906 919 956 1263 1548 1382
163 157 145 150 150 99 98 96 96 96 96 94 92 94 93 98 96 97 114 115 119 135 154 141 134 152 162 153 158 163 142 129 125 124 123 118 138 143 152 145 148 145 147 143 141 141 140 140 139 139 136 131 135 138 138 142 138 138 141 136 136 136 136 136 137 137 136 135 136 132 132 134 134 133 135 135 135 135 135 137 137 138 137 137 138 140 142 142 144 144 144 143 143 147 151 147 151 153 156 157 161 167 166 170 173 177 180 182 183 186 191 194 196 198 198 201 220 208 209 210 212 215 219 222 218 221 220 221 223 246 263 250 252 266 278 275 294 294 307 305 315 315 318 322 320 333 359 342 347 347 348 352 353 355 358 363 371 379 387 397 405 413 421 429 438 443 447 451 460 473 484 495 508 518 527 541 557 592 656 672 652 660 639 660 750 837 863 737 692 645 705 736 763 772 813 847 906 928 1018 1190 1177 1038 830 798 976 907 905 847 962 1023 864 1014 866 1110 1339 1340 1325 1277 1026 977 716 648 783 1218 1354 809 822 1034 1168 976 1050 1334 1312 1375 1887 1372 1352 1593 1970 1617 1533 1956 1609 1885 1838 1688 1596 1404 1425 1456 1511 1552 1584 1868 1922 1967 2429 1899 1456 1492 1380 1493 887 884 889 1005 1238 1759 1275 1009 1008 1014 1026 1081 1076 1214 1357 1451 1476 1546 1564 1547 1353 1204 1193 1167 1176 1182 1442 1926 2007 1837 1679 1729 1835 1685 2317 2414 2196 1530 1328 1075 797 776 1150 1638 1822 1814 1503 1337 1228 902 987 1258 1161 1011 841 675 492 503 506 487 850 1093 862 720 656 658 643 632 620 595 548 532 514 568 718 729 567 546 499 621 896 1157 1001 1051 605 394 270 329 333 262 205 207 206 206 207 247 265 247 232 264 362 454 682 789 741 736 718 695 688 663 674 666 632 625 435 418 399 361 362 333 205 205 223 314 442 656 615 500 883 947 955 977 998 838 1005 1069 1086 1046 1066 1090 1052 970 864 992 1010 1029 1046 1024 964 985 1085 1148 1165 1131 1028 1011 989 863 909 1113 1074 1035 972 882 770 759 686 769 774 793 699 760 724 692 604 593 634 597 570 563 588 560 616 654 680 709 743 766 764 729 712 725 730 731 732 740 767 771 781 797 820 870 973 937 876 796 792 892 962 1017 1002 1110 1283 1525 1578 1520 1437 1180 1134 1222 1243 1275 1034 924 916 931 870 873 792 606 794 865 1004 952 971 967 939 1047 995 979 871 808 754 719 752 623 655 899 992 1042 1045 1094 1203 1165 1159 1097 1036 986 957 862 909 933 929 916 960 1011 1049 1111 1159 1110 1061 1032 952 847 764 694 721 743 744 754 736 745 767 794 904 983 1024 1038 1041 1051 1080 1104 1002 999 1055 1024 876 858 911 852 839 838 838 818 809 809 821 805 812 810 813 797 796 798 797 817 800 798 815 803 813 811 809 753 776 802 836 852 856 855 847 838 840 833 825 825 830 836 832 838 838 823 823 801 770 794 829 868 883 898 897 896 896 908 918 887 858 841 817 807 853 887 946 941 901 894 880 920 924 944 875 824 785 766 790 758 738 764 774 767 776 801 814 829 851 822 765 734 740 762 762 766 772 789 781 782 772 760 750 742 743 732 725 722 716 745 748 751 748 745 748 746 763 763 758 772 750 736 731 728 736 738 747 741 733 729 728 724 722 726 733 688 681 738 750 749 752 746 772 820 853 899 973 965 954 787 732 766 773 819 938 856 816 822 937 1025 1143 1262 1121 1037 875 834 941 1028 1078 939 872 1055 983 782 825 986 873 856 1010 1063 1005 929 787 867 842 852 854 806 732 659 659 663 728 815 939 1007 947 902 874 903 936 863 793 902 908 860 915 995 1165 1239 1070 1108 1366 1265 1081 1405 1487 1185 1338 1180 1023 921 939 991 983 1093 1321
157 145 149 136 146 98 97 96 96 95 95 92 94 93 97 95 109 124 119 143 148 136 157 139 126 147 160 157 160 156 146 139 149 145 125 123 122 122 146 149 144 151 154 142 141 141 141 142 141 139 136 135 138 138 139 139 139 139 139 138 138 138 138 140 141 141 139 137 136 138 134 136 137 139 136 137 137 137 139 139 137 140 143 140 139 142 145 149 148 145 147 147 147 145 152 154 157 153 163 164 167 170 172 177 173 181 183 187 189 192 195 197 202 204 207 207 224 217 213 214 214 215 218 223 227 237 258 227 226 228 251 257 257 259 288 283 284 290 301 303 312 321 332 328 333 340 357 363 369 365 364 365 368 368 368 373 378 387 397 405 414 424 433 442 451 459 463 468 464 473 485 495 508 519 531 545 562 565 595 651 643 698 695 759 670 711 744 870 781 707 697 718 721 736 744 808 970 1044 1115 1219 981 933 860 863 864 916 1055 923 946 1033 1013 1225 1243 1073 1304 1434 1037 872 702 664 660 791 1045 1582 1268 1324 902 918 945 1144 1254 1703 1693 1900 1738 1500 1292 1274 1371 1205 1479 1877 1495 1248 1252 1292 1319 1373 1412 1473 1627 1747 1740 1874 1831 1717 1824 1783 1733 1728 1623 1148 837 844 861 1375 1878 1501 1023 978 993 988 1055 1080 1185 1290 1686 1820 1834 1790 1628 1717 1214 1126 1141 1160 1161 1182 1242 1377 1439 2101 1756 1805 1558 1419 1584 2142 1679 1565 1492 1389 837 705 708 1105 1254 1399 1524 1268 1076 1111 1308 1239 950 900 846 552 417 504 498 510 866 957 985 862 810 678 611 615 583 560 559 537 538 513 456 432 479 499 534 701 1061 1196 989 652 408 324 317 263 270 194 200 198 199 215 254 269 231 332 353 482 618 699 687 716 727 749 774 758 717 759 797 759 542 562 395 381 327 323 299 273 201 270 440 780 888 861 668 598 644 652 673 749 691 676 771 1016 1017 1037 1052 1015 998 934 935 992 1042 1133 1183 1045 1087 1058 1101 1223 1166 1051 1058 1064 1043 942 831 964 1036 988 974 921 891 779 671 782 795 811 723 667 694 706 612 586 622 620 566 578 600 640 665 691 714 725 735 733 720 717 744 747 746 763 767 781 787 843 912 1007 1143 1246 1136 1167 1181 987 867 863 895 932 936 981 1085 1288 1175 1293 1388 1292 1205 1422 1401 1550 1362 945 931 936 868 825 754 682 825 855 977 1015 1053 1035 992 1097 1259 1122 1011 974 947 947 891 763 609 674 896 892 940 1009 1033 1145 1153 1134 1066 1038 983 943 906 906 960 996 1026 1093 1107 1124 1206 1183 1106 1036 987 849 759 694 740 738 751 747 754 742 746 760 817 900 978 1011 1035 1060 1031 991 979 890 907 866 833 827 823 818 821 831 837 836 869 866 849 826 819 803 790 789 788 790 788 789 780 777 776 761 772 791 796 749 768 765 766 781 792 798 801 799 788 791 797 797 805 818 820 813 807 802 796 786 764 741 780 823 850 848 846 852 847 850 840 834 813 798 785 798 835 891 885 881 869 846 910 972 1010 964 904 856 834 795 774 750 733 760 760 764 749 769 781 787 806 803 803 752 728 721 729 729 771 783 799 801 785 772 736 726 724 726 713 710 730 747 756 745 751 753 737 751 773 766 764 752 745 736 739 722 725 741 739 730 724 721 712 720 719 724 720 674 754 791 806 774 752 753 779 828 864 927 931 874 817 769 722 758 804 953 1027 948 998 1083 1228 1318 1293 1151 1006 823 937 1150 1232 1102 1256 1123 1258 1014 956 899 817 752 744 734 737 761 777 820 770 743 706 737 710 699 657 659 662 670 681 735 860 854 835 864 885 897 980 960 833 908 1045 992 1250 1442 1324 1212 1016 1216 1178 1349 1300 1212 1397 1409 1499 1290 1141 977 958 1034 1007 1002 1291
143 122 126 109 140 134 97 92 93 94 94 93 94 94 96 114 120 151 150 123 148 154 153 137 125 144 158 166 160 159 153 145 159 160 147 129 126 123 146 144 144 144 144 141 141 142 143 143 145 138 139 138 135 140 142 140 141 140 139 140 140 139 138 143 140 140 137 138 138 143 135 137 142 141 139 137 139 141 139 139 139 141 142 141 146 146 149 148 149 148 150 151 148 153 150 154 157 159 164 169 170 172 178 178 180 185 187 191 194 197 199 204 207 210 214 217 228 221 219 220 220 221 228 231 241 257 311 258 230 230 231 258 263 266 271 275 280 297 304 303 313 321 327 338 344 348 355 360 380 382 377 379 381 379 379 381 387 394 404 413 423 436 443 454 464 472 481 486 491 494 503 505 520 545 586 704 587 629 608 603 748 801 761 781 808 695 929 795 850 909 872 819 820 812 769 718 776 860 980 1194 937 881 937 961 894 1051 963 1029 1190 1244 1064 1365 1456 1094 1287 916 777 685 677 670 872 1198 1613 1978 1534 1530 1226 1633 1584 1809 1728 1769 1745 1899 1594 1797 1510 1208 1169 1105 1154 1189 1119 1177 1230 1277 1324 1578 1502 1240 1519 1663 1921 2152 1809 1649 1578 1551 1666 1719 1347 802 798 782 900 1485 1845 1276 946 957 954 1043 1073 1153 1216 1246 1330 1459 1628 1767 1726 1162 1097 1111 1120 1131 1139 1257 1407 1368 1445 1542 1635 1603 1973 1380 1271 1679 1810 1754 1760 1275 942 651 644 600 559 957 1313 1597 1477 1444 1420 1254 1117 1152 793 628 432 486 466 528 815 1074 1193 950 1002 932 1149 1076 1045 890 541 521 505 479 476 444 412 395 492 594 736 680 554 427 311 277 232 254 211 193 196 198 202 257 276 234 335 424 724 789 800 840 791 815 722 720 717 691 722 716 642 684 570 516 391 240 218 195 197 196 256 402 767 922 974 1015 966 731 1002 1072 1016 1029 893 1003 1046 1050 1072 1023 1025 981 964 971 1007 1019 1044 1064 1080 1086 1070 1206 1111 1159 1097 1082 1053 1055 1009 951 751 902 923 930 941 923 894 820 687 698 717 690 634 625 627 629 603 561 567 564 578 615 682 724 725 723 724 734 731 737 759 770 778 781 792 812 818 849 930 1032 1142 1254 1284 1219 1261 1311 1168 951 934 909 903 942 952 919 947 1118 1177 1307 1281 1407 1491 1665 1674 1585 1441 1006 917 920 865 806 794 727 843 981 999 1096 1019 972 1097 1080 1159 1292 1214 1058 996 990 996 956 792 607 647 758 886 909 920 917 931 946 964 1043 1026 996 913 874 998 1105 1133 1149 1253 1251 1219 1243 1120 1110 1026 887 773 688 735 737 778 788 863 774 747 748 832 952 954 982 987 985 942 862 867 838 823 818 819 819 818 818 818 834 854 871 874 855 862 875 906 840 817 861 839 834 812 803 800 796 800 791 785 782 741 727 717 720 749 731 757 757 763 766 761 762 769 775 794 787 799 804 793 790 796 798 779 728 749 782 803 813 823 825 825 813 808 791 768 745 780 778 792 815 818 816 828 855 902 1008 1011 941 887 843 840 867 808 773 732 746 746 745 743 752 747 759 779 790 759 747 721 707 712 713 737 765 777 775 753 732 718 713 714 710 705 722 735 752 747 744 750 748 735 749 758 763 764 772 756 735 733 719 716 717 722 720 728 707 707 712 711 714 671 708 849 866 820 785 769 780 788 862 899 958 894 798 763 758 704 753 810 918 934 919 993 1083 1106 1036 1012 900 783 1043 1178 1296 1176 1100 1193 1089 994 1040 942 887 903 851 901 823 776 691 713 721 737 728 669 670 656 657 658 663 669 677 689 697 722 739 748 798 819 874 968 1022 963 826 959 1133 1477 1429 1264 1161 1142 1077 1293 1391 1371 1505 1322 1324 1176 1214 1057 1039 1134 1142 1074 1047 1050
127 130 145 137 100 100 96 95 92 92 92 92 92 161 307 299 327 172 143 143 159 147 139 144 141 126 132 147 158 157 147 156 166 165 152 148 129 125 132 151 146 142 141 142 147 147 144 143 143 142 140 140 138 141 141 141 142 142 142 143 142 141 143 141 144 143 138 139 140 140 137 137 138 142 139 142 143 141 141 140 141 143 144 144 147 148 148 152 152 151 153 153 153 157 154 162 164 167 169 170 176 179 181 183 187 191 192 196 200 202 205 208 212 216 219 235 236 225 225 225 226 232 237 243 248 291 280 277 258 235 235 234 269 271 279 284 289 296 300 308 318 329 336 343 357 354 364 369 373 392 399 400 397 391 405 396 397 403 412 420 432 444 455 466 476 485 495 503 509 515 522 524 538 601 720 630 631 623 725 606 699 698 660 701 757 767 833 887 809 773 930 1026 1113 1099 1069 942 736 765 823 953 1103 971 954 1186 1075 1019 1333 1387 1452 1288 1096 1360 1325 1455 1074 769 695 691 742 1045 1319 1578 1613 1407 1475 1635 1598 1617 1930 1700 1643 1645 1667 1871 1426 1525 1580 1627 1318 1037 1047 1069 1097 1198 1637 1513 1718 1778 1053 1350 1648 1588 1679 1468 1659 1764 1465 1251 1512 1209 929 738 750 750 1198 1560 1322 1034 920 919 943 1026 1109 1106 1227 1424 1420 1510 1602 1500 1315 1092 1051 1069 1086 1100 1148 1251 1641 1946 1530 1570 1694 1643 1347 1375 1155 1651 1415 1608 1572 1364 904 850 816 630 527 502 536 860 1111 1205 1103 1237 1092 915 730 468 423 439 416 559 834 1025 1398 1348 1287 1787 1574 1383 1220 1213 866 636 559 464 432 426 425 380 382 479 552 437 339 290 261 220 202 221 188 195 195 210 262 277 237 340 412 616 784 811 773 802 741 707 687 690 655 697 733 673 667 612 524 417 258 199 191 253 323 369 515 867 930 973 1033 1051 1027 991 1019 1047 1094 1106 1003 1102 1096 1099 1043 1004 988 990 1016 1031 1048 1037 1049 1105 1128 1098 1121 1117 1087 1117 1102 1146 1083 995 964 903 789 876 939 958 972 926 911 847 702 759 707 660 656 624 594 569 554 563 579 606 629 655 709 713 734 743 749 757 780 801 841 843 786 813 837 880 911 1026 1294 1112 1256 1468 1483 1418 1172 1009 954 938 1053 1096 1045 1059 1148 1014 958 976 1044 1182 1229 1507 1661 1499 1659 1445 1287 1011 923 907 859 820 776 776 859 952 1017 1071 1003 948 1021 1024 1075 1130 1112 1047 966 957 991 951 808 549 777 911 878 850 912 918 920 856 852 878 915 1056 953 793 966 1105 1154 1214 1211 1320 1239 1157 1109 1017 1014 896 781 688 722 725 777 795 886 865 747 743 753 797 875 850 815 812 804 808 816 812 823 844 882 919 1003 983 1011 986 904 907 913 922 938 948 919 856 843 905 887 874 847 822 818 811 815 801 790 801 782 779 734 718 710 710 706 733 756 751 760 752 752 758 763 770 789 792 803 793 785 832 796 773 732 738 757 767 768 785 786 772 749 738 722 749 781 792 784 773 779 800 818 865 917 968 937 897 855 834 805 853 797 729 753 757 752 761 744 736 731 737 768 806 753 734 711 708 705 707 715 726 732 732 726 708 716 696 698 700 715 719 725 767 759 721 736 737 748 744 745 757 770 761 762 731 726 723 712 713 725 719 719 709 703 714 702 662 661 671 745 794 779 759 878 881 838 852 827 897 861 759 727 737 686 729 754 776 785 786 810 876 849 794 782 768 756 775 780 816 817 803 795 796 787 782 763 749 747 748 743 735 682 672 736 725 655 656 659 657 657 660 659 663 698 696 697 701 710 720 749 751 781 851 935 968 886 836 977 1222 1244 1291 1258 1202 1470 1399 1162 1265 1269 1295 1554 1403 1451 1097 1068 1424 1379 1535 1230 1119 1061
