ncols        200
nrows        121
xllcorner    -156.003330000000
yllcorner    58.996670000000
dx           0.065033300000
dy           0.040044400000
NODATA_value -32768
201 235 155 207 216 138 178 273 397 354 248 222 183 170 142 116 107 117 71 132 114 185 141 169 112 170 127 259 322 261 469 516 376 230 293 389 406 370 338 100 104 102 110 118 115 123 227 159 135 144 145 280 213 218 338 263 215 361 302 348 353 344 479 440 423 389 451 632 570 623 357 345 364 396 286 372 247 248 231 162 148 134 125 125 125 160 145 133 140 143 151 155 155 171 177 177 174 165 163 161 158 159 164 166 162 156 151 156 161 166 175 179 179 173 183 194 198 204 206 206 204 201 205 216 228 237 248 258 262 263 267 275 282 281 333 294 248 230 224 218 223 313 351 361 440 555 434 497 505 557 593 435 406 463 418 385 360 376 362 318 316 456 378 691 684 533 826 493 377 617 621 954 969 588 915 855 729 806 998 1186 1077 1215 902 1138 1257 900 1364 888 1073 1559 1385 1290 1210 1270 1162 859 808 933 894 914
256 257 168 148 140 127 152 235 241 210 234 159 246 101 88 80 87 94 145 158 161 130 212 189 137 181 327 297 476 260 202 284 141 304 325 325 427 480 365 205 116 178 340 271 259 211 131 225 334 202 219 270 203 191 235 276 402 273 283 295 312 322 328 360 415 536 519 510 546 439 313 316 273 228 301 216 219 220 207 169 163 139 127 125 175 166 146 147 152 156 158 167 243 283 254 184 179 174 176 174 174 178 180 181 178 170 164 168 178 189 197 198 194 187 193 209 227 232 239 234 230 231 231 238 248 261 274 287 295 298 298 305 307 314 311 303 275 257 239 231 232 235 235 259 325 407 392 424 283 421 528 343 290 288 290 296 295 298 303 387 320 468 686 1065 641 573 357 795 959 1123 1164 1196 907 1097 1062 913 799 942 727 941 1004 1086 1091 994 1273 1335 1383 1123 1345 1584 1537 1189 1180 1342 912 773 1071 1251 1074 955
319 314 277 255 159 111 117 127 185 178 362 187 119 105 81 167 214 162 217 134 158 184 183 173 175 191 179 430 265 322 189 105 91 272 165 270 454 460 226 170 178 346 389 471 287 214 140 174 327 268 310 270 284 372 347 280 292 323 391 469 394 539 635 505 569 619 569 582 517 329 326 317 303 296 241 214 229 198 183 182 158 140 129 163 148 150 150 154 159 164 169 175 287 341 237 195 194 198 196 190 190 197 201 203 196 191 181 183 198 212 226 224 217 205 212 235 254 272 277 272 270 272 276 278 288 288 301 321 332 337 341 340 340 343 336 327 307 325 323 324 302 291 266 241 245 248 252 258 263 265 367 280 280 283 284 289 292 296 334 528 390 494 471 504 676 433 351 477 946 783 552 565 491 879 742 799 599 775 955 1392 1285 1110 1228 1209 1126 1331 1324 1291 1579 1346 1241 1060 1335 1181 881 955 1150 1301 1319 918
250 213 187 154 179 190 136 105 201 244 181 311 167 83 90 169 239 182 140 192 218 222 134 225 167 343 172 233 194 137 236 96 105 174 184 370 381 338 229 155 312 581 442 542 362 420 214 445 324 314 347 233 442 408 273 291 420 513 518 404 398 433 589 488 535 618 682 406 352 265 391 320 248 206 221 224 205 186 181 207 243 141 133 138 173 171 171 162 169 178 185 189 193 221 208 208 218 226 225 219 208 217 227 222 221 219 227 262 265 271 260 405 637 454 395 377 299 316 318 315 336 335 347 365 359 360 362 353 366 380 381 373 372 381 379 374 351 386 364 348 323 327 304 325 348 324 334 350 361 455 272 277 281 285 292 295 289 403 379 411 482 475 355 357 337 355 325 341 420 544 388 421 523 498 574 412 642 645 903 576 586 949 728 871 1400 1140 1308 1524 1281 1258 1163 1119 1108 874 926 821 1145 1183 1522 1330
285 167 187 278 226 240 228 145 102 105 338 152 87 169 94 254 262 372 209 315 186 227 245 268 266 290 161 193 293 318 213 97 216 460 460 373 241 200 159 291 415 364 643 440 297 256 360 423 398 308 328 309 346 255 266 353 701 373 427 432 561 650 617 416 375 591 554 467 277 237 305 265 218 210 212 193 183 239 265 231 238 165 138 157 185 217 171 175 186 192 199 207 210 228 227 240 288 280 314 413 467 315 458 235 381 710 491 627 464 926 737 437 551 682 659 581 662 588 559 567 459 451 473 464 476 675 744 629 439 415 433 418 411 422 424 419 421 419 414 393 369 351 363 368 363 332 317 329 319 314 307 292 286 291 294 308 503 305 306 308 310 316 490 419 329 322 477 381 465 643 367 595 442 570 388 721 539 650 702 854 1023 1145 1211 1146 1492 1491 1107 1138 1347 1006 1022 889 976 1117 1162 992 1013 1135 1312 1120
163 224 226 234 229 172 156 213 139 146 113 118 157 245 104 189 300 366 411 255 409 331 333 200 241 219 141 164 169 122 104 163 351 660 632 284 246 213 219 545 391 665 509 239 324 310 333 600 585 356 442 289 336 229 250 397 623 337 384 461 373 557 639 319 562 379 373 363 239 240 210 230 197 191 180 171 204 227 261 205 193 139 143 167 154 162 173 187 202 211 218 224 226 239 253 309 336 302 421 451 538 531 405 250 368 494 615 752 703 784 707 714 435 602 574 629 583 518 449 572 649 701 819 532 551 554 598 654 543 522 490 485 461 460 463 451 468 466 465 436 418 379 402 411 378 361 349 344 345 333 341 334 337 298 308 310 311 315 309 309 309 311 390 319 318 320 512 619 634 451 763 610 691 845 440 470 556 844 886 959 1246 1161 1049 1091 1417 890 958 1119 1144 996 894 976 1110 975 1091 1068 1151 1348 1226 1084
187 172 168 162 151 152 140 210 201 208 147 311 282 158 220 299 292 491 241 401 446 405 349 293 172 250 278 140 111 108 111 212 330 550 305 239 264 211 267 622 346 395 198 219 290 331 552 919 718 332 307 267 245 220 280 243 252 401 288 329 577 387 441 266 357 383 358 228 212 209 316 227 198 188 167 165 254 286 224 231 234 141 147 172 163 197 200 206 223 239 250 248 249 261 348 397 364 318 450 408 517 504 444 299 266 458 574 692 661 618 517 464 568 696 630 619 740 633 592 533 675 709 865 996 685 799 761 708 647 600 556 574 543 531 514 517 548 558 538 505 471 410 472 474 441 413 387 369 408 376 336 331 349 327 330 325 322 329 324 313 312 314 317 321 323 325 463 556 344 370 469 844 924 802 572 719 638 485 802 897 941 730 759 585 585 847 1052 1071 998 901 904 1079 1198 979 1005 1034 1192 1308 1080 902
99 107 129 155 126 130 213 207 292 314 286 364 221 259 193 296 359 442 416 378 301 374 200 186 128 117 116 130 152 116 119 130 208 321 479 339 320 302 352 399 388 217 330 446 421 536 515 626 359 315 274 236 216 234 247 225 437 322 261 339 429 297 242 289 392 367 224 202 203 260 254 217 217 187 162 167 232 187 151 148 146 145 155 201 190 190 221 244 282 291 275 277 275 345 394 346 428 374 427 434 439 469 473 407 328 296 512 659 830 882 932 673 799 1139 1102 906 704 784 705 560 720 900 953 992 1060 1017 1166 926 764 541 699 896 758 762 566 909 914 744 719 682 476 556 574 550 517 448 427 422 409 445 393 351 350 381 364 341 343 339 361 341 320 313 318 320 323 325 333 331 334 337 518 398 441 359 732 529 772 981 582 555 612 613 493 870 775 1106 1055 981 940 923 1132 1048 1074 1043 961 1065 1248 1360 1259 1259
88 108 128 93 95 177 250 328 261 261 313 232 207 244 333 413 394 567 371 306 302 181 137 122 122 142 173 188 190 136 119 134 233 341 630 438 329 481 416 513 301 230 553 325 416 445 633 493 431 279 240 243 208 249 213 208 250 234 302 475 602 366 224 215 189 194 194 194 288 325 325 251 218 164 159 157 157 154 168 149 148 171 193 206 209 244 284 315 411 426 307 307 381 416 392 430 416 448 385 491 600 637 620 616 419 300 382 673 651 810 687 653 668 675 683 825 1013 974 743 631 779 1065 875 1185 1296 1296 1065 765 570 698 817 852 895 860 910 998 951 995 799 680 523 615 709 734 625 521 474 452 450 452 459 409 376 374 412 436 361 353 362 376 349 335 335 327 325 329 332 336 339 339 341 342 469 398 486 562 629 570 374 531 649 671 718 1014 1100 957 1325 1141 1176 1008 1036 942 896 984 1054 1245 1231 1083 1313 1103
82 81 107 144 174 229 264 250 400 239 185 303 339 347 362 394 346 386 302 297 143 226 163 188 200 216 278 307 203 137 128 162 301 294 520 559 381 564 478 607 570 289 586 449 344 502 356 378 302 344 355 326 213 211 207 213 239 340 258 515 344 242 209 198 195 190 190 192 322 252 460 207 192 165 160 159 157 161 152 151 173 167 192 199 234 336 443 489 716 565 352 332 463 397 398 463 504 591 610 538 670 693 981 901 719 377 409 556 1005 939 786 685 890 1012 1033 893 1000 956 991 977 907 1208 1158 1106 1076 1161 708 665 1026 1274 1282 1523 1146 1005 831 1231 1110 1084 1078 880 542 1070 1059 861 697 608 501 504 487 465 490 474 404 403 405 395 376 369 388 387 392 368 358 350 332 332 335 339 344 347 346 344 343 343 344 346 350 430 584 551 696 458 788 630 1092 1028 903 1545 1402 1201 1053 866 857 869 865 980 1014 1295 1028 899
89 79 103 140 163 264 320 262 266 321 335 368 320 389 263 425 333 241 221 149 142 285 266 229 166 370 262 196 167 145 164 170 339 428 586 516 718 399 490 771 326 358 486 603 488 408 256 257 474 288 305 196 272 245 340 342 276 213 205 272 287 196 194 193 197 196 190 194 387 205 391 178 171 165 163 163 163 161 159 159 185 175 212 263 362 691 473 607 683 720 371 461 480 455 592 766 892 1036 862 626 595 730 975 855 695 509 349 540 693 718 702 675 755 826 894 1030 1156 1249 1164 1514 1117 1352 1489 1257 1218 692 1211 1216 990 1379 1348 1021 1009 901 884 971 1052 735 670 623 612 681 649 610 573 573 565 539 524 497 482 530 449 525 512 398 392 445 436 428 419 403 391 377 362 347 340 345 347 352 353 391 476 410 363 615 549 608 588 781 670 1053 683 1091 903 600 1220 1098 1071 990 923 876 896 1195 940 934 769 763 777 763
168 245 103 161 227 250 241 259 350 285 306 375 415 296 333 239 188 149 184 164 435 257 444 284 192 533 378 253 161 170 194 273 217 348 471 525 464 786 609 351 352 496 522 547 348 457 501 211 212 203 210 211 214 248 286 203 312 192 192 194 196 197 198 199 199 195 193 190 188 218 179 178 174 172 171 169 172 171 163 166 190 210 223 322 664 645 806 736 480 406 482 573 615 681 514 635 674 672 602 579 590 531 583 647 569 471 469 364 522 676 825 713 809 1078 1309 1386 1318 1258 1210 1479 1331 1386 1315 1240 1119 735 1416 1738 1521 1549 1518 1341 1550 1196 1185 910 760 696 659 635 723 732 679 675 640 658 637 587 549 535 550 533 548 556 420 415 524 485 487 465 451 438 418 399 380 363 363 363 355 359 361 414 546 475 693 530 432 495 781 742 921 965 893 771 608 599 862 1248 908 842 656 1182 1203 1094 886 823 790 716 705 694
120 123 147 267 173 269 165 228 326 376 498 335 392 225 297 167 197 384 154 289 271 474 358 366 256 566 339 257 178 228 269 420 342 450 623 564 525 675 697 354 399 407 546 339 476 229 214 187 187 232 206 241 273 308 268 203 194 192 220 198 198 200 201 205 202 198 208 192 191 186 184 186 181 180 178 182 179 177 174 177 186 226 304 403 706 789 562 621 445 461 456 476 502 588 513 522 565 573 581 531 601 565 662 732 745 697 531 454 533 517 470 735 813 707 1415 1048 1060 1366 1036 1638 1596 1382 1694 1565 780 903 1224 1124 1331 1591 1437 1506 1317 909 1145 1194 825 738 855 843 850 713 830 1075 830 724 751 777 734 748 664 600 642 546 437 484 597 560 505 522 489 477 451 424 405 389 385 395 399 391 374 373 372 383 380 675 573 414 639 694 579 745 756 458 667 827 726 645 580 722 935 1318 914 965 850 750 721 702 693 686
140 179 131 187 194 211 227 276 300 445 487 259 309 175 168 182 256 198 160 162 194 453 346 460 293 268 312 195 204 255 378 435 560 592 570 596 619 519 356 417 370 487 258 440 253 182 185 253 290 229 452 387 281 281 234 210 200 198 202 204 201 201 207 212 207 248 214 202 197 197 198 199 197 195 194 195 193 193 189 207 261 407 488 765 838 683 527 553 493 483 517 527 546 561 593 591 614 735 728 594 872 635 795 902 762 695 866 758 659 686 629 1223 1335 1174 1266 1639 1285 1129 1290 1456 1361 1117 876 913 1206 1581 1832 1781 1884 1624 1368 1113 1015 1293 1474 1271 1144 853 835 1268 1238 801 1208 1671 1375 1055 725 924 850 802 735 684 660 458 474 560 688 566 554 590 536 609 1308 1127 560 417 423 440 449 429 407 478 382 436 391 793 413 385 442 524 639 487 430 712 934 710 465 442 621 644 645 777 953 847 894 749 706 708 699 694
199 178 300 296 346 212 310 364 264 330 446 184 238 383 243 222 291 209 185 177 208 357 360 337 321 259 332 407 247 302 431 391 370 377 597 477 520 475 488 400 363 251 261 192 196 237 396 268 249 363 330 350 284 249 279 230 202 206 211 211 209 211 218 216 220 215 212 213 213 215 216 218 214 216 218 222 225 217 276 407 593 596 742 891 698 690 554 804 544 553 588 567 592 609 674 768 646 873 792 688 730 758 729 880 1095 1310 1374 1598 971 914 1033 1219 728 879 824 861 1394 1756 1530 1074 1306 1217 910 1161 1542 1510 1864 1670 2106 1881 1579 1358 1506 1782 1842 1436 1300 1072 1636 1500 1168 816 1678 1188 1088 1075 791 1032 1041 1067 846 765 605 496 509 932 811 646 621 672 983 1324 1392 1273 1314 687 488 511 478 492 520 434 409 384 387 384 384 454 623 455 421 417 784 824 508 663 439 452 445 597 838 917 839 882 750 720 821 873 837 734
285 253 326 285 278 276 441 453 224 312 234 407 291 286 282 342 227 172 228 187 196 271 309 337 619 396 291 446 241 275 481 406 390 489 841 525 462 579 288 379 211 234 180 176 205 391 452 228 267 300 357 296 252 239 231 223 208 214 216 219 228 228 222 220 230 238 224 231 234 237 241 242 239 240 251 261 265 301 479 393 492 712 731 1290 1048 1076 708 665 576 704 662 685 730 639 923 969 784 995 1262 801 757 1063 1101 1043 1157 1191 1127 977 652 570 803 838 1070 1252 1241 849 1061 1088 930 950 1453 1330 1297 1160 1134 1458 1312 1114 1148 1372 1813 1395 1955 2122 1847 1833 1319 956 917 949 1121 1010 1130 1279 1261 929 1176 908 1080 1007 864 801 627 574 503 647 734 752 892 816 1145 1085 1216 1488 1150 1248 646 569 638 599 508 819 511 505 395 387 411 501 523 450 409 486 705 486 427 429 441 498 829 693 737 751 589 914 708 826 1152 930 944 833
257 177 180 193 284 516 321 283 202 251 442 341 285 416 398 336 190 224 288 197 246 368 337 356 459 468 418 273 442 430 818 692 521 516 466 511 411 376 222 197 231 172 174 184 206 427 319 251 239 230 245 286 240 225 230 226 229 235 233 240 236 229 227 229 237 229 232 242 251 257 260 262 259 261 280 292 312 343 412 528 590 642 1006 821 715 842 694 601 707 646 825 778 914 976 779 1039 912 1289 802 785 799 944 904 823 889 909 895 822 595 487 682 1262 1153 895 941 743 696 800 1123 1165 1477 1319 1467 1286 1676 1254 1522 1529 1479 1439 1857 1409 2291 2221 2195 1922 1175 1812 1620 2118 1289 1517 1530 1285 1162 1259 1252 961 1262 1072 1137 924 775 557 520 599 843 982 750 933 912 1072 1384 1777 1544 1415 1195 570 793 602 916 870 461 439 439 400 399 404 404 406 409 411 413 416 420 487 609 644 878 674 860 697 780 741 859 813 808 949 811 760
246 245 254 215 256 366 248 214 328 281 289 247 389 304 191 205 216 257 288 246 298 381 360 317 406 458 523 302 592 527 553 629 371 431 357 310 279 365 206 167 173 181 232 214 297 393 244 260 292 285 271 255 248 248 249 246 250 246 241 246 238 238 240 248 249 246 249 259 272 281 289 292 288 298 318 340 365 408 452 426 622 812 1215 801 1069 687 863 654 759 682 732 1198 1221 1265 919 1072 1118 949 776 906 856 866 968 1129 1394 1254 1053 1192 773 801 547 571 577 598 605 724 819 635 739 1255 1033 1187 1386 1728 1705 1352 2048 2196 1693 1817 2195 2233 2142 1966 1641 1447 1391 1850 1685 2823 2573 2062 2295 1496 1583 1756 1681 1139 1383 1465 1640 1082 933 665 573 545 918 1025 818 960 1032 1050 1075 1530 1248 667 690 1287 1054 619 1243 521 787 509 450 573 643 505 486 601 590 450 468 419 438 425 491 508 659 863 928 702 848 555 635 568 704 818 809 725
433 343 275 293 328 233 314 247 436 250 290 252 207 231 229 289 267 351 283 247 279 289 395 380 698 951 516 430 437 720 453 570 498 338 270 242 205 188 168 169 183 239 211 222 450 306 272 307 296 271 254 252 247 258 259 267 261 253 249 246 248 250 254 263 266 259 268 276 290 307 318 322 338 397 448 440 476 497 685 763 793 1075 977 1100 886 851 954 854 756 1076 738 1165 1495 1081 964 1091 1523 1266 871 945 1002 876 1396 1230 1182 1101 1160 1059 1355 808 613 667 746 856 802 1073 1398 1114 736 666 979 1474 1279 1167 2005 2006 1321 1634 1681 2458 1538 2360 1918 1840 3550 3408 2809 2194 2040 2315 2969 2092 3417 2527 2672 2032 2028 1326 1494 1737 1391 1229 1154 877 571 592 926 1271 1057 894 1388 1485 1857 858 718 1318 1322 1356 1267 941 982 546 1438 1394 1162 1142 822 691 643 767 793 614 658 518 456 433 433 437 515 631 553 522 515 548 620 578 748 778 753 803
358 403 313 288 271 332 293 265 299 224 214 229 289 287 305 331 309 332 308 305 477 375 417 398 489 560 447 547 510 445 751 425 350 259 216 209 177 170 165 168 172 173 188 260 558 287 308 280 265 251 250 254 258 262 261 258 264 258 258 263 264 269 274 283 294 290 305 299 308 330 344 362 387 452 471 502 488 689 645 1060 1121 1148 888 1000 1084 1152 1071 779 1058 1175 1319 826 1383 1109 880 1326 1661 1279 1299 932 1591 1036 1138 1399 1402 1484 1393 965 832 990 644 1234 1271 842 1217 974 1336 935 1399 1270 856 1145 986 781 1127 997 1108 1450 1807 1536 2285 2083 2090 1761 1549 1806 1653 1943 1893 2056 1872 2105 2036 2610 2353 2038 1775 2828 2079 2314 1809 1277 1310 1483 718 607 1048 1562 1932 1470 1465 1269 1388 1303 1376 1618 1629 1432 1846 1154 683 601 1081 1307 1314 1290 1111 795 1292 840 1044 896 547 536 515 483 457 440 527 771 527 502 516 700 540 693 873 931 1004 976
592 486 352 268 328 375 366 278 285 255 263 267 366 422 649 507 434 389 316 368 528 662 883 514 569 1112 585 657 609 543 395 357 322 360 193 177 166 163 168 175 175 178 192 721 469 257 261 251 244 248 256 256 266 263 264 309 267 286 283 308 303 285 290 306 321 320 326 327 333 366 369 454 436 506 550 588 752 787 973 1014 914 709 742 774 905 1067 898 1119 892 1328 1212 890 1530 1362 1188 1020 1238 1309 977 1350 1356 1444 934 1774 1517 1486 1369 1239 1213 1261 596 1211 1579 1421 1077 1189 1542 1444 1254 1331 1258 1192 1402 1572 1162 1997 1515 2142 1458 2163 1823 1565 1579 1295 1379 1467 1808 1520 1505 1278 1828 2018 1780 2132 2217 2750 2707 3245 2923 2300 1668 1631 1278 1047 1193 638 995 2002 1118 1602 2161 1352 2636 1786 1932 2388 2467 1943 1731 918 824 650 1044 1255 1887 1678 1409 1159 1133 882 756 823 589 607 609 623 503 447 721 677 634 496 588 572 622 899 814 1018 1134 1032
407 315 328 359 652 457 400 426 353 293 302 257 331 543 757 679 912 581 366 382 465 635 885 481 472 431 747 775 583 533 490 412 404 203 197 169 161 166 178 178 218 181 199 482 337 246 225 227 241 237 243 251 260 288 313 291 307 309 297 298 285 320 311 318 345 349 364 364 369 416 488 578 534 679 875 980 664 842 611 877 707 723 855 917 978 1006 1145 1183 980 1655 1122 975 1017 1332 1188 1123 1288 1216 1362 1341 1918 1203 1347 1080 1215 1494 1221 1232 1161 1122 794 1280 1442 1560 1666 1396 1621 1530 1014 1167 1158 1397 1351 1422 1249 1241 1042 1029 1300 1520 1219 1128 1240 1307 1730 1748 1252 960 1429 1766 1516 1569 1978 1732 1867 1829 1729 1672 1504 1741 1943 1966 2168 1624 715 677 965 1788 1434 2097 2078 2418 1979 1795 2038 2348 2322 2000 1208 1282 2021 707 890 1521 1732 2093 1711 1509 1404 1051 922 650 601 566 547 484 470 455 826 729 966 484 672 469 654 571 586 617 814 934
242 410 331 356 482 534 487 325 295 209 287 308 285 404 589 737 614 477 404 401 364 471 543 420 407 560 856 478 645 525 293 290 223 189 168 157 160 170 179 215 224 185 262 264 276 215 220 226 232 240 249 269 280 277 321 294 309 327 301 306 320 338 371 341 351 377 394 403 417 542 612 639 563 490 620 699 734 769 772 779 822 876 936 845 842 937 1171 1281 1095 1224 1518 1071 1745 1305 1596 1780 2037 1716 1168 1632 1555 1489 1432 1474 1231 1486 925 1185 1275 809 614 755 810 940 911 947 1392 1308 1361 917 1063 924 982 1507 1200 1057 956 1595 1372 1538 1014 1678 1353 1403 1514 862 857 1205 1197 1515 1433 1773 2161 2061 1960 1825 2358 2356 1476 1734 1187 1073 895 1005 1685 1066 728 1238 1520 2000 1452 1830 2547 1982 1827 1965 1538 1934 1809 1613 806 976 1820 1625 1211 1956 1689 1915 2243 1612 919 599 548 708 845 678 505 491 696 546 501 552 472 617 476 473 569 473 488 747
257 334 329 493 557 557 429 313 297 243 177 246 271 345 360 501 494 531 443 329 330 305 262 447 348 689 438 379 375 365 340 241 176 177 160 184 173 178 181 221 189 210 198 203 207 219 224 239 242 247 257 285 293 310 301 331 318 325 329 392 584 365 477 373 398 416 424 468 513 468 497 578 589 541 556 530 552 561 592 632 652 682 720 751 869 875 911 1028 1187 1695 1288 1238 1933 1356 1341 1972 1999 1604 1334 1684 1365 1441 1237 1363 907 1023 1223 803 774 714 1054 1343 1052 636 892 839 1025 958 1073 895 966 1350 1406 1207 1087 885 900 1167 1636 975 876 1492 1186 1098 923 807 1225 1382 1637 1790 1763 1131 2065 2003 2089 2124 1989 2096 1700 1792 2110 1522 1496 1772 1421 1092 772 734 1211 1007 1454 1517 2696 1856 2684 2084 1788 2048 1599 1045 2145 1127 1431 1846 1751 1997 1849 1332 1413 805 691 927 739 1471 1732 1216 604 464 496 475 590 521 638 471 471 473 476 608 480 627
609 595 363 403 530 628 586 659 356 272 185 546 238 275 393 333 338 220 337 216 242 320 319 508 458 334 387 361 386 436 364 228 154 151 208 184 187 184 196 185 186 195 202 207 216 222 242 249 264 273 283 281 291 314 327 332 334 342 375 404 454 412 404 406 427 458 477 488 503 545 550 570 570 592 587 588 620 687 752 773 797 867 843 951 1058 891 1035 1453 1168 1574 1561 1505 1745 1522 2002 1676 1523 1195 943 1381 990 1136 813 1326 1289 1268 993 663 669 670 677 695 730 766 978 869 796 670 799 824 1143 1146 965 890 878 879 887 894 877 825 825 1026 999 910 786 788 904 868 819 1216 1365 1530 2031 1583 1600 1796 1955 2355 2075 2073 2058 2169 1854 1726 1942 1657 1501 747 801 1176 1287 1822 2313 2073 2158 1724 1912 1322 1595 1374 2073 1550 2019 2068 1441 831 730 976 1444 946 1474 1276 902 621 1131 1547 1333 791 507 531 548 462 468 467 472 477 482 486 488 488
266 384 446 410 438 346 458 486 210 228 137 160 172 158 187 186 202 223 195 305 403 374 510 592 411 283 264 232 233 253 173 146 154 332 228 190 190 178 180 182 191 195 201 208 217 233 235 251 267 289 298 299 302 323 333 345 359 370 389 407 442 424 438 446 462 497 514 543 528 560 601 636 645 650 684 692 778 733 751 746 823 815 949 1026 1074 1045 1113 1668 1618 2001 2175 1546 1517 1193 921 1723 1265 1186 1553 1012 805 959 834 825 739 718 719 748 874 933 1423 767 1283 1227 1434 1292 1448 1246 775 680 696 785 806 821 822 824 822 837 797 793 865 870 843 778 779 922 1167 1276 1172 1410 1358 1615 1370 1273 2041 1204 1908 1911 1409 1621 1714 1103 1113 1502 1146 1818 1227 777 1307 1431 1119 1622 1962 2010 2152 2295 1819 1556 2216 1860 1894 1868 1535 906 831 1725 1479 1710 2137 1947 1649 1907 1715 1038 737 1248 1446 1463 1102 1379 1093 1305 868 543 477 483 489 494 497 498
402 468 690 474 256 349 248 211 157 130 130 139 143 140 149 156 170 168 240 293 291 450 362 435 419 292 289 190 239 189 144 142 194 242 205 193 173 176 180 183 189 193 206 230 221 242 250 256 294 298 301 323 319 356 354 365 379 389 407 436 468 451 460 481 497 521 608 583 567 601 619 630 693 734 774 762 855 761 845 1002 848 1074 1239 1241 1584 1385 1093 1389 1848 1689 1394 1288 1520 1538 878 1435 1404 1316 933 1325 941 752 797 771 740 733 781 1214 1338 1268 1534 1471 999 1176 1304 1305 1186 1259 835 844 745 744 767 751 782 785 794 789 823 813 801 808 771 814 958 1060 1108 1112 1229 1458 1592 1453 999 1534 1654 1013 1662 1490 1177 1360 1361 1007 1478 1339 1256 1302 1114 767 793 1816 1569 1541 1518 1644 1945 2169 2711 1875 1784 1722 1498 1325 1073 1592 2049 1684 2216 2060 1453 911 788 769 718 781 1165 983 1129 1578 1534 1579 1151 1525 1351 788 564 494 496 505 505 508
365 391 389 475 419 171 136 168 126 114 119 123 132 139 147 152 147 178 296 398 299 269 324 239 283 286 303 172 172 156 139 163 224 374 219 170 174 183 179 184 188 189 346 329 236 244 269 269 306 318 331 336 344 368 378 403 407 414 455 459 476 485 512 519 551 570 722 653 700 675 719 793 800 833 865 887 977 1033 1321 1007 1231 1754 1583 1418 1681 1334 1286 1544 1901 1631 1279 1146 986 838 786 745 976 1255 897 859 974 834 757 702 697 768 930 924 1101 1183 1301 1346 863 1319 1354 1341 1198 1165 934 898 834 828 832 919 923 887 814 801 816 806 795 784 865 1159 1617 1392 1185 1244 1217 1381 1797 1041 1242 1670 1717 933 957 1006 1104 1077 1048 1024 968 946 1055 1070 834 1015 835 1252 1312 1468 1392 1923 2136 1883 1556 1771 2284 2022 2063 1419 1891 2536 1941 1559 1303 1089 1382 1536 1999 1321 1663 1409 1719 1269 1728 1366 1443 1651 1374 1500 1600 1862 1199 688 753 575 518 524
393 258 180 229 276 206 114 109 111 114 116 115 121 124 128 138 149 341 293 425 241 294 237 255 168 148 144 147 154 135 137 254 272 220 167 171 179 188 185 187 185 264 280 244 285 287 297 291 326 362 335 356 370 382 409 430 471 452 486 501 517 540 536 577 609 623 764 783 824 954 1150 967 1029 1009 1181 1186 1530 1250 1602 1677 1729 1639 1569 1556 1603 2270 2129 1787 1700 2135 2063 1638 1188 1591 1385 1378 1033 854 746 673 835 720 672 694 801 1368 1238 1270 1116 1426 1256 1275 1091 1058 1376 1155 1137 1099 1034 1108 964 935 1215 1194 1065 986 971 913 793 769 761 825 1533 1335 1320 1236 1792 1378 1445 1418 1419 1151 1112 1543 1161 900 1253 1213 1396 1371 1383 1230 1123 992 1046 965 958 1206 959 1004 1235 1119 1610 1697 1446 1354 1828 1805 1792 1386 1503 1488 2322 2327 2272 1851 1605 1372 1624 2076 1624 924 1616 1574 1144 1497 1604 993 1310 1017 1108 1236 2003 1441 1239 1490 997 941 733 536
548 354 207 144 125 114 108 113 115 117 118 120 126 136 140 154 227 291 204 412 171 186 175 157 142 134 131 130 133 146 221 380 345 209 165 173 181 187 203 199 258 229 235 252 257 283 349 322 352 390 375 380 402 402 428 441 472 481 523 532 555 574 660 727 711 786 730 812 876 1303 1091 1263 1303 1359 1562 2136 1549 1505 2732 2681 1831 1918 2802 1883 2524 3403 2892 2034 1462 1323 1714 1743 1237 1301 1831 1369 1353 1024 854 574 605 627 672 968 703 846 1042 1240 1195 1174 1171 1409 1546 1444 1213 1396 1224 1385 1045 999 987 1224 1345 1216 1175 1048 1167 1144 1004 800 754 924 1441 1066 1589 1087 1446 1411 1024 1385 1364 1519 977 1034 984 888 1097 1119 1180 1180 1374 1189 1057 1207 901 851 883 1005 1145 1040 990 1113 1398 1333 1439 1238 1201 1539 1371 1270 1521 1145 1656 1414 1997 2206 1598 2035 2728 1548 1137 1486 1869 1478 1277 1529 1413 1186 1210 1288 1045 1055 1186 1442 1186 1081 994 568 552 545
442 221 168 136 117 107 110 112 119 120 140 426 343 158 306 164 392 254 208 130 129 140 130 126 127 127 130 132 153 322 303 247 154 156 181 183 187 212 206 222 229 235 245 245 295 330 388 363 585 556 387 402 434 453 444 468 483 501 532 549 600 631 684 695 740 822 888 919 1238 1322 1280 1613 2417 2845 2158 2137 2612 3448 3633 2798 2196 3279 2511 3024 2167 2183 2359 2221 1575 1492 1157 1510 1220 1161 731 1217 1045 916 666 560 537 640 1270 1646 1283 755 1024 880 1086 955 1421 1126 1447 1340 1574 1302 1290 1348 1215 998 1204 1590 1280 1028 1045 1360 1311 1271 1284 916 747 1390 1302 1438 1341 1370 1240 1319 1669 1200 1278 1143 1192 970 1002 880 981 1192 1347 1503 1544 1254 998 1598 957 1167 1227 1056 922 1048 980 1089 1192 1106 1236 1052 1070 1175 1116 1081 1305 1275 1304 1267 1115 1186 1197 1644 1513 1832 1983 1731 1571 1885 1430 1160 1437 960 1048 726 1191 1708 1711 1018 1354 800 578 576 948 964
246 232 160 143 109 107 111 114 119 130 166 178 221 153 146 186 135 164 188 117 117 121 122 125 127 129 132 137 137 184 145 146 157 316 181 189 200 212 224 232 244 253 272 420 431 468 468 390 462 395 391 430 443 474 475 487 494 525 557 590 636 643 737 774 830 1009 927 1444 1774 1248 1787 2176 1844 2473 2790 4890 5743 4637 2785 3428 2190 3398 3260 2800 1623 1765 1293 1155 1277 1197 1188 1401 1444 1327 1144 1134 1034 717 489 525 699 1537 1263 1668 1353 851 1005 1266 1322 1366 1149 1243 970 1475 1381 1209 1089 1334 1195 1436 989 1095 1052 1194 1057 1171 1330 992 1116 806 745 1066 1380 1102 1428 1504 1274 1269 936 1109 1093 1057 1000 980 965 874 945 1172 1179 1149 1162 1185 979 1318 860 1256 1281 1181 1132 1007 996 989 1149 1267 1030 998 1261 1268 1095 1066 1086 1576 1155 1772 1018 1293 1551 1601 1105 1367 1286 1775 1254 1065 1040 1219 1461 1799 1472 844 1128 676 1148 691 605 594 772 800 881 845
254 205 137 107 102 103 110 121 152 147 136 126 177 485 143 140 208 279 115 119 119 121 123 125 140 131 139 142 139 139 147 147 164 172 182 194 199 216 229 241 258 274 281 344 404 580 377 449 445 499 425 436 488 520 530 521 530 538 562 656 731 705 752 813 1104 1082 1424 1109 1633 2899 1548 1913 2555 3319 2994 3327 4976 4526 4311 2970 2271 2406 2312 2102 2755 2007 1562 1237 975 936 1361 1163 1080 1321 897 862 536 574 435 575 1210 647 1460 1158 966 1107 1512 1333 1191 1009 1484 1400 1200 872 1305 1360 1464 1024 1140 1563 994 1126 1455 1072 1003 862 917 883 883 748 741 776 900 1019 1214 1648 1606 1102 966 910 958 972 949 1068 967 870 943 1106 1157 1141 1101 991 909 898 862 961 1065 1120 1080 1298 1032 919 1045 1050 952 1168 1162 1211 1162 1073 1045 955 1089 1357 1044 1039 1236 1629 1447 1034 1829 1339 1617 1308 1658 1655 1801 1561 896 1346 1138 1130 1201 646 647 1259 1260 1087 1118 893
167 126 113 110 122 104 111 474 160 178 148 180 110 111 110 284 160 114 117 119 120 122 124 127 128 135 135 142 142 147 150 157 167 176 188 196 209 219 237 251 272 288 299 313 329 352 371 450 462 452 462 479 552 555 567 568 572 606 651 778 776 757 925 1204 1417 1432 2134 1348 2035 1830 2095 3064 3429 2246 2732 3314 3608 2549 2433 2076 1826 1668 1798 2203 1747 1774 1587 1318 1222 980 799 739 1261 764 1033 696 538 485 567 872 1441 1099 1178 1050 1249 1453 1295 1316 1389 1255 1082 1071 1468 1265 887 1503 1432 1236 1026 934 1097 1352 1260 926 851 910 1418 1696 1246 819 736 733 740 736 830 805 845 876 833 920 967 966 996 990 907 873 901 984 971 1013 977 967 873 969 1242 905 1020 1001 1061 1435 1187 799 979 1083 919 1032 1429 1278 1124 1037 1226 908 978 1017 932 919 1004 1150 1542 961 1047 1351 980 1247 1350 1463 1276 864 1331 1549 1407 1720 1233 1052 622 771 1254 1100 1322 1117
116 235 135 113 108 103 104 191 106 106 106 108 109 110 111 112 114 115 117 119 123 122 133 131 130 133 138 140 145 151 154 165 170 178 188 200 214 230 242 261 281 351 322 338 355 472 378 411 446 476 504 525 584 587 576 638 607 638 681 694 729 771 1154 1337 1507 1624 1706 1633 1796 3519 3945 3077 2080 1991 2246 2538 3117 2815 2290 2830 1641 1519 2097 1690 1690 1099 1396 732 669 1490 1254 770 588 701 711 576 467 510 661 1239 1303 884 933 1564 1444 1075 1347 696 757 1386 1109 979 1555 1528 741 1543 1104 921 1038 948 948 926 793 839 1206 1267 1593 1077 1126 1198 816 737 747 776 847 761 793 809 797 899 1182 1201 1029 942 874 857 875 910 924 939 922 888 880 997 1154 890 955 1017 1016 1076 944 935 1009 917 925 1112 1059 1098 1149 989 953 897 922 883 953 1030 973 892 933 959 1233 1015 1137 972 781 802 795 1241 1513 1340 1354 1038 1311 1190 634 1061 1192 1319 1151 1412
380 262 121 138 123 104 103 104 130 158 106 167 149 130 132 116 117 119 116 118 120 122 124 126 131 135 141 149 151 153 164 169 172 179 190 200 214 230 247 267 284 304 327 349 371 401 413 438 470 513 554 592 623 668 645 747 624 622 787 911 927 1370 963 1302 1313 1628 2624 2911 3315 3143 4183 2606 2011 2007 2554 3877 2311 2369 1408 1437 1815 1324 1928 1313 989 751 1434 1465 609 1360 1409 887 461 565 421 412 347 492 531 1091 1053 629 1078 1020 903 569 1028 1216 1267 1040 1361 1500 1281 958 861 1000 926 920 1013 929 805 778 1077 1270 1408 1177 1086 1482 1145 1425 1124 1021 882 806 788 720 808 788 786 855 1010 941 912 858 859 893 905 874 910 891 915 906 863 825 883 872 938 1038 1156 992 864 852 1064 880 898 951 1105 950 1013 947 909 930 872 890 1042 1075 989 861 939 1323 1136 1072 1459 1164 964 770 714 718 680 788 1257 793 913 646 699 1310 1435 1288 1186 1336
222 129 157 152 185 180 102 99 148 160 144 150 136 128 120 118 120 119 121 121 122 123 124 127 129 136 143 151 156 159 167 176 182 185 196 206 219 231 247 265 288 313 342 367 391 415 432 455 437 516 568 672 631 595 661 797 750 887 1018 1350 1534 1169 1340 1018 1732 2187 1966 2356 2915 2184 2170 2061 1969 1813 1876 2478 2507 1694 1400 1771 1853 1230 1608 1259 1674 1344 1068 1334 806 667 367 749 351 388 371 402 396 463 467 1389 503 1336 1074 568 619 804 994 865 991 1098 1325 1229 1041 1009 718 755 887 995 845 741 757 742 1178 870 1102 1245 1160 1174 1129 1057 964 876 972 814 745 774 735 746 747 786 817 821 831 866 930 983 957 945 960 984 965 924 924 915 859 807 859 1109 1157 944 846 843 1031 873 856 859 959 915 977 903 945 859 821 1132 946 933 858 902 1370 1561 1220 1136 1176 1707 1386 1123 756 689 878 743 1138 1016 845 963 959 728 837 1255 1155 1559
152 412 292 283 150 100 102 127 130 138 141 140 134 133 124 125 123 122 126 130 123 124 125 129 131 139 148 156 164 172 173 186 192 198 202 219 230 250 265 281 306 334 368 402 428 455 472 480 529 536 520 523 523 578 604 715 1001 1504 1694 1914 1584 1771 1277 1407 2039 1818 1670 2173 2460 1434 1931 1717 1860 1579 1828 2511 1810 1183 881 1510 1113 1088 897 1274 1509 1341 378 1103 947 1067 657 377 298 356 359 473 983 1141 433 749 642 541 531 790 856 875 713 917 1088 1088 901 923 927 872 720 715 719 717 695 669 676 802 1168 1273 1268 1397 944 1058 1114 1013 890 917 991 895 770 717 747 748 736 752 797 810 991 1117 1128 1376 998 1174 1050 961 968 1014 1274 1081 1099 932 884 749 800 819 780 881 926 1003 883 841 842 910 845 943 896 824 772 870 873 802 892 938 1004 1386 1296 1508 1549 1211 1414 1592 1335 735 672 670 1264 1597 1356 1326 1607 778 1202 1084 894 888
189 425 173 100 98 95 106 134 139 141 147 143 140 134 128 129 135 126 127 127 128 128 128 135 145 146 152 162 173 181 190 198 207 216 217 235 246 268 286 314 332 366 404 439 479 506 529 539 559 612 631 603 582 540 571 579 688 1434 1845 1610 1815 1549 1538 2588 2292 1611 1394 2139 1659 1260 1269 1723 1426 1848 1840 2164 2241 1986 747 948 1414 848 811 1236 1016 1168 1001 317 1045 717 335 255 293 414 654 934 843 339 453 289 276 392 566 659 741 737 453 642 1091 1024 1040 773 685 446 622 546 464 640 632 477 635 704 802 815 953 927 940 914 949 1019 1047 1034 1093 1050 812 734 712 748 1012 1038 1032 1067 988 900 926 912 952 960 949 978 991 1052 1181 1149 999 1154 948 912 779 917 1031 834 987 988 933 860 841 779 802 809 796 789 787 806 759 826 1058 884 1210 919 1216 1300 1102 1062 1103 994 1464 1273 769 673 858 1155 961 875 797 801 1452 1145 1370 1117
168 115 133 94 95 149 141 153 116 141 142 149 147 130 134 133 132 132 130 131 132 134 138 136 142 150 159 172 180 195 202 206 228 236 258 280 294 302 317 341 368 398 435 485 534 582 629 638 954 964 1155 781 884 841 1094 1219 635 823 1350 1765 2254 2364 2144 2009 1857 1723 1002 1518 1277 1125 1301 1440 1272 1798 1862 1135 1898 1473 926 589 676 743 713 1184 1032 536 1047 401 342 214 227 333 321 686 533 519 376 348 816 966 765 957 748 748 923 635 1003 552 607 560 593 595 552 697 724 690 698 947 850 1159 1073 814 658 734 548 535 984 1294 1196 1051 1025 1115 1113 1230 835 744 788 1045 995 1264 1283 1264 1233 891 968 843 1108 883 1182 1218 1023 1018 801 1119 1145 866 1172 1045 842 755 783 799 753 806 796 800 799 767 785 765 751 799 887 809 737 783 765 812 840 1367 1046 1249 1228 1014 1045 1145 1057 923 936 1179 918 1478 1017 1191 1053 883 1053 957 1459 1567
169 136 96 92 95 143 139 157 139 123 149 142 142 135 139 138 140 137 136 137 139 140 149 147 154 164 177 187 197 207 214 223 227 257 283 303 328 363 365 373 405 442 468 495 545 651 759 870 718 808 1219 863 923 1225 1434 664 1582 918 1703 1500 1205 1248 1373 1747 1717 1728 844 1501 988 1290 1790 1126 1182 2101 1419 1565 705 1399 1111 900 504 957 678 560 513 499 1196 324 194 215 332 699 749 759 562 323 270 861 652 676 1037 934 1133 1058 1051 942 988 779 811 706 620 640 725 717 763 843 1246 987 932 1288 1292 1550 936 682 1015 1097 974 763 892 1145 1038 906 1093 1183 849 738 742 900 1060 890 827 831 866 803 790 777 791 765 798 791 818 802 741 848 850 798 891 846 964 795 760 769 803 721 783 772 726 747 753 766 736 741 721 724 791 753 927 769 953 1083 1151 1150 1123 899 734 820 737 659 735 864 960 992 1212 1349 1409 977 1002 1480 1162 1159
103 127 96 94 341 154 142 138 160 139 140 146 151 157 145 147 145 143 140 145 144 151 155 160 168 181 196 209 219 235 238 259 266 243 302 376 409 388 412 427 436 480 531 569 699 700 822 791 848 1073 800 1519 1817 1667 720 1609 1006 1310 1764 1087 962 1701 868 1318 837 647 722 823 1029 1810 1000 1007 1905 2072 1624 1264 1197 909 319 716 357 1182 868 744 443 381 226 202 209 386 617 573 598 577 186 626 958 1068 1134 1104 992 1132 1228 1152 1004 912 915 766 581 595 764 796 904 1211 1052 1587 1048 1176 1521 1024 1239 1038 832 772 1066 961 1016 826 765 572 644 794 961 981 772 695 766 747 771 857 917 909 945 845 855 845 822 756 750 824 740 781 845 703 689 748 781 878 776 762 774 747 799 707 682 683 717 726 722 747 717 703 713 651 700 702 696 685 690 671 682 725 717 686 646 659 670 686 717 778 838 893 1037 1179 1507 1446 1537 1592 1540 1304
147 144 101 95 94 117 139 315 171 164 174 166 161 161 156 156 153 152 147 155 158 163 171 180 190 203 222 237 248 265 275 294 301 312 254 306 343 371 413 484 496 541 662 765 748 830 863 897 964 1093 1648 1044 1614 863 994 1361 1646 1791 1583 874 718 1159 1808 698 447 730 871 1027 1140 1573 787 791 1254 1497 1154 519 1239 1015 686 283 246 1143 594 612 367 260 196 202 167 359 521 818 455 326 803 855 1030 888 671 583 712 785 1047 819 972 907 736 571 616 753 848 1256 1119 1024 1017 1120 1326 1505 1225 966 1045 1036 848 965 995 997 970 1064 1095 922 876 805 815 672 738 743 750 738 766 738 763 812 785 761 736 731 735 728 717 690 719 697 650 638 647 646 639 667 674 673 668 694 679 681 687 666 685 694 727 713 708 696 684 677 622 674 667 598 595 603 609 615 622 671 665 683 688 710 735 764 900 1325 1391 1402 1231 1629 1746 1923 1377 1309
190 194 124 185 93 178 309 241 204 323 179 151 196 164 165 167 163 168 169 220 170 179 191 207 222 230 249 269 279 288 308 325 341 370 322 271 310 338 394 391 454 528 780 746 971 1064 1171 1591 1389 941 1470 1471 1024 1503 2241 1520 1042 1391 1489 914 879 548 568 292 773 965 1128 1352 1396 1422 1219 658 611 782 958 761 1051 965 1455 857 403 293 292 210 295 199 196 232 160 419 770 391 315 804 892 692 709 804 718 815 957 1021 971 1030 698 691 491 728 766 978 1067 1351 947 1554 1266 1737 1696 1309 1066 1357 1190 1137 853 1029 991 999 1116 1109 1202 952 828 801 742 764 760 734 751 792 753 765 754 758 749 741 740 756 773 803 909 827 855 790 760 669 620 633 630 646 614 619 666 676 678 683 680 650 679 682 678 671 666 664 662 659 596 591 629 633 648 636 652 665 668 705 695 713 722 723 751 784 825 919 1500 1547 1781 1530 1980 1918 2290 1664
192 272 190 162 94 164 195 380 427 361 286 177 189 175 180 178 176 273 376 249 195 198 212 233 255 269 275 298 314 314 340 361 382 397 364 319 320 303 318 435 587 523 523 1217 1580 1688 1827 918 1232 1031 839 1307 1407 1577 752 1024 1409 1741 896 971 735 266 231 660 1309 1036 820 1355 910 1115 1288 1019 495 460 639 766 1001 963 720 765 683 1046 594 334 217 198 222 242 186 536 526 153 549 822 507 491 466 738 938 1088 875 973 940 962 604 425 737 474 1164 1285 1192 1168 1224 1626 1961 1722 1554 1285 1527 1443 1133 1161 974 1227 1131 1237 1487 1465 1182 958 880 791 792 788 772 752 774 798 776 756 735 822 821 824 772 765 822 788 811 810 827 818 806 724 666 621 634 643 632 582 627 641 650 652 678 645 670 673 671 656 652 645 658 633 576 630 652 666 699 708 729 744 772 768 760 759 812 779 782 790 826 882 947 1071 1184 1229 1371 1347 1449 1577
355 144 153 91 199 113 126 170 216 297 202 177 207 188 192 214 215 269 290 307 219 224 228 248 278 301 323 352 354 359 370 405 434 440 449 468 357 327 338 402 759 964 1027 577 792 697 1407 1758 891 1380 1108 1398 1150 553 647 1861 1547 1309 1495 1244 751 1022 186 423 784 1263 757 975 704 924 655 1146 445 362 529 1063 807 853 651 589 795 552 465 249 233 247 268 234 211 342 149 329 633 621 486 526 805 846 819 836 935 978 895 594 717 867 1299 732 815 841 841 964 1177 1275 1583 1774 1337 1412 1639 1752 1381 941 1385 1358 1366 1233 1228 1341 1105 951 885 819 834 831 794 773 774 782 783 775 748 737 795 822 802 770 778 789 847 820 829 837 793 711 666 662 629 638 636 644 639 601 652 656 661 658 611 633 639 650 640 625 547 599 652 686 694 717 772 798 831 902 968 901 916 987 882 848 847 799 843 873 896 930 974 972 992 1042 1092 1227
86 202 121 218 99 105 157 200 180 183 275 219 214 236 206 226 256 458 390 600 249 255 255 271 300 334 344 418 415 412 425 454 482 511 491 519 446 382 330 551 1094 909 859 1244 1057 1600 1676 1794 1363 1204 1346 1242 985 1167 662 472 1014 876 864 970 1351 722 153 289 1033 1018 660 867 1122 421 1085 995 332 324 357 625 605 566 1033 923 523 472 366 267 416 293 205 226 148 204 141 328 449 540 480 636 648 613 516 856 955 1245 684 660 703 822 1353 1092 1119 961 656 635 766 1433 980 1040 1463 1538 1308 1380 1216 1054 1655 1751 1573 1418 1275 1149 1107 1025 841 835 900 922 853 799 795 792 795 810 817 776 738 725 777 792 791 812 827 827 838 825 725 675 661 651 636 638 665 652 632 593 602 607 621 631 628 621 626 604 588 588 547 603 673 693 752 805 906 895 1197 1395 1451 1290 1157 1066 996 934 911 880 875 952 929 895 983 1090 1169 910 1445 1684
201 176 166 376 103 116 150 143 173 166 219 239 245 248 213 260 319 393 344 291 276 278 278 299 333 375 431 383 435 454 479 541 556 621 792 1049 429 436 342 777 602 1400 1323 1261 1301 1772 1717 1345 1908 1431 1296 1551 1401 787 697 594 267 590 1300 1288 1033 154 133 375 916 818 905 589 650 590 616 593 289 238 286 545 483 722 917 560 457 426 313 288 377 253 232 212 136 186 163 256 327 330 421 447 492 356 551 836 715 563 419 884 1146 1442 972 1356 1333 1077 748 1153 779 771 1246 1631 1184 1377 1634 1356 1328 1261 1171 1471 1424 1527 1209 1245 1128 913 941 892 949 881 832 824 820 800 884 917 916 894 767 738 755 829 797 806 845 845 825 748 703 675 645 645 636 656 653 644 620 600 577 589 610 612 620 626 584 572 581 523 575 615 666 730 792 896 1013 1171 1289 1619 1445 1625 1294 1208 1079 997 945 889 909 978 962 914 1051 1429 1302 1020 918 1411
146 407 348 180 177 121 327 146 171 243 241 232 252 279 245 232 299 402 379 389 313 316 321 348 386 436 495 525 461 520 822 1255 1174 880 1049 1089 580 622 358 746 1622 962 1083 1433 1215 1212 1702 911 1709 1588 1967 1283 2109 1068 964 854 554 174 237 456 669 111 113 507 553 891 714 569 578 474 442 444 333 224 226 293 417 763 556 469 462 453 359 304 314 233 226 191 130 156 164 184 256 339 261 372 268 559 445 359 375 393 879 1150 1519 1316 1350 1434 1558 1127 1412 1119 1282 955 698 1429 1201 1148 1614 1804 1106 1789 1888 1484 1498 1429 990 1133 1191 1092 974 870 993 937 861 862 831 829 822 823 878 846 759 733 731 792 814 828 817 886 817 726 669 677 652 646 638 638 656 659 636 614 525 571 588 586 591 586 557 532 508 566 599 666 700 812 925 1064 1232 1454 1141 1458 1832 1693 1553 1305 1169 1143 937 880 947 890 890 1075 927 1393 1472 1815 1196 873
455 277 147 129 183 196 184 187 176 290 282 237 284 352 284 278 248 275 315 355 350 359 365 403 459 496 553 648 748 521 1040 1433 1129 924 1136 1109 840 1258 407 1202 1601 972 920 845 1282 1126 948 1713 1660 2196 998 1904 1489 1884 1346 1276 1230 1160 767 244 112 153 98 160 744 812 657 592 776 491 440 415 410 220 219 246 397 545 534 438 381 369 325 307 270 210 193 162 122 123 119 141 137 199 270 187 259 354 541 685 953 597 455 787 1079 1599 1004 905 859 1200 1213 1485 1720 1511 832 1022 1671 1899 1752 1336 1784 1277 1619 1112 1478 1529 1347 1486 1669 1250 987 908 1173 1094 958 981 922 891 906 824 807 784 753 720 745 737 769 780 792 753 743 695 650 644 664 650 648 652 650 641 623 591 559 550 583 570 571 480 548 533 579 655 688 721 775 889 1066 1221 1453 1633 1670 1381 1857 2069 1305 1313 1461 960 913 999 1511 1479 1163 1546 916 1129 1472 1668 1669 1403
214 268 209 178 351 415 468 317 273 202 233 266 285 323 316 304 264 289 327 324 408 415 447 541 674 648 794 955 1216 633 1025 1701 1435 974 851 1196 1099 436 876 393 1376 1412 720 642 834 1323 778 1187 1290 929 538 1291 611 1487 1275 741 714 321 675 828 285 92 130 86 99 335 547 661 627 496 434 398 376 378 232 215 212 318 497 524 503 343 293 262 227 178 161 151 119 109 108 154 158 236 439 514 654 707 656 186 911 1167 654 948 856 595 1452 1140 1445 1233 1388 1417 1793 1529 1528 745 919 1558 1861 2044 1513 1865 1451 1471 1646 1631 1432 1018 980 989 1036 1079 1021 1095 1070 1125 1004 981 917 858 816 766 743 724 720 720 736 743 791 770 703 708 679 644 673 657 669 642 620 609 589 561 543 512 553 556 494 517 567 668 706 736 743 798 872 1017 1249 1376 1529 1874 1924 1969 1870 1737 1556 1655 1152 972 1458 983 1295 1777 1730 1389 975 1894 1805 1710 1383 936
291 314 187 195 404 614 526 496 407 319 246 264 326 357 371 334 321 279 312 336 461 469 605 649 778 868 1552 1182 1011 788 777 1280 1309 1242 1397 1257 971 486 1519 1323 425 450 823 1151 777 1051 1224 1448 1568 923 829 1001 572 1364 1350 725 1059 1070 917 559 499 382 96 81 76 77 190 356 454 494 445 403 389 341 353 214 211 225 329 729 406 316 226 239 200 131 138 139 109 102 146 139 298 247 632 712 643 659 737 779 479 260 248 944 1434 1498 1062 660 1058 1419 1532 1533 1692 1317 1781 1170 1148 1782 2008 1734 1854 1630 1696 1636 1602 1133 1070 1142 1471 1226 1042 1107 1121 1223 1091 1152 992 1001 890 849 845 765 738 726 742 720 729 740 722 700 684 670 657 644 659 663 640 615 575 560 552 533 523 441 433 541 606 636 671 706 728 757 804 891 954 1068 1377 1417 1549 1684 2202 2997 2373 1756 2049 1749 1281 1007 1604 1055 2134 2343 2214 1432 1551 1292 1296 1726 1053 1503
262 203 199 249 276 620 703 671 376 277 228 272 266 314 356 438 399 349 336 351 615 521 661 534 1119 1679 1482 1434 1069 611 1300 1275 1035 1500 1316 904 831 1151 1221 702 732 1087 854 1300 1277 1023 1541 909 1167 1268 963 729 816 321 395 614 672 1155 699 957 1065 649 415 148 86 68 73 154 238 356 415 422 382 353 339 313 222 203 246 465 382 295 259 220 171 119 121 130 97 112 94 128 181 217 406 600 596 684 804 978 1200 841 1164 453 364 1102 1767 1521 1555 1336 1903 1153 1461 1996 1658 1640 1008 1275 1743 1511 2036 1864 1825 1554 1176 1267 1367 1411 1568 1278 1203 1275 1130 1160 1201 1061 1002 943 929 876 855 771 749 742 750 750 761 735 704 695 675 668 662 666 650 658 619 590 554 534 523 516 491 412 531 586 633 638 605 662 784 819 843 874 870 1064 1326 1495 1746 1988 2523 3626 3478 2016 1810 1449 1477 1071 1076 1389 1401 2213 1995 1877 1663 1545 1632 1021 1693 1891
409 250 203 211 286 431 614 351 263 286 215 240 260 315 363 399 485 593 421 314 406 607 616 752 977 680 1603 1314 692 862 811 1145 1324 1396 1466 1453 552 1530 1429 487 1243 1261 1037 1492 1508 1305 1457 713 1205 1315 714 713 1377 1206 1063 824 248 516 1124 454 503 714 735 380 142 80 67 65 111 206 362 415 394 421 572 318 283 218 218 290 359 270 238 171 146 108 108 125 100 113 89 129 176 249 355 466 586 776 1001 1132 1217 1272 1297 1068 1099 306 1549 1758 1806 1680 2098 1972 1871 2014 2242 1267 1287 1905 2089 1925 1869 1676 1422 1390 1267 1510 1547 1627 1598 1125 1210 1203 1262 1244 1186 1011 964 916 891 882 842 790 745 727 762 805 810 781 757 739 686 637 676 664 641 644 599 570 529 515 511 499 481 505 535 600 639 687 700 739 832 917 1079 1167 1163 962 955 1358 1572 1685 1817 3310 4929 2966 2931 2175 2171 1047 1472 2201 1999 1893 1683 1532 1222 1209 1432 1809 1876 1401
185 170 162 233 435 247 228 237 197 216 241 291 373 366 408 555 568 541 651 352 350 678 839 1021 1062 1027 1301 917 783 1176 820 1390 1477 1124 1063 1379 651 1271 795 574 638 1031 1144 1351 1200 1114 744 708 681 883 919 1383 1540 805 928 644 752 260 497 918 726 561 396 247 148 98 104 61 81 102 242 523 608 607 434 324 317 257 191 217 321 264 162 148 118 107 99 114 109 81 105 114 147 223 335 472 638 702 940 1325 1186 1194 1103 1220 1233 1377 783 394 826 1584 1256 2076 2438 2361 2083 1401 1739 1497 1856 2016 1816 1641 1734 1380 1506 1810 1453 1334 1427 1378 1393 1161 1172 1269 1032 1096 1010 945 880 849 808 785 750 711 769 867 902 850 836 803 726 685 677 652 649 634 590 539 503 486 496 486 472 469 510 549 641 693 776 810 909 1080 1383 1472 1979 1384 1075 1211 1415 1676 1852 1812 3385 2965 1705 1487 1211 1201 2022 2418 1706 1563 1790 1316 1100 1641 1510 1710 1676 2012
161 186 189 226 301 196 180 167 212 348 298 372 522 490 489 527 432 607 531 380 348 468 876 1224 1706 1533 1616 1419 771 1152 1351 1418 1716 1236 1488 1319 1067 640 828 1529 634 703 1453 1249 891 779 888 907 828 678 700 904 1320 986 649 1114 828 863 344 232 262 266 154 124 101 131 67 64 58 61 66 273 847 594 418 348 312 243 215 211 280 243 166 129 105 90 92 108 106 119 91 113 128 206 307 399 389 504 780 635 1310 795 1031 1488 1433 1540 1318 1501 2068 715 1309 1714 1912 2136 1742 2249 1989 1403 1164 1549 1232 1758 1464 1423 1704 1625 1673 1617 1312 1451 1313 1255 1339 1199 1141 1084 1015 889 856 837 869 801 739 714 723 852 940 885 855 906 897 795 633 615 649 648 606 550 513 461 468 472 383 453 510 575 660 730 805 862 1009 1284 1675 1949 2456 1601 1282 1142 1303 1442 1616 2379 2427 2467 2158 1750 1545 1622 1970 2392 2073 1843 1675 1571 1246 1668 2013 2177 2561 2132
129 137 201 413 404 223 152 278 321 368 550 651 692 378 334 405 545 632 539 394 365 416 751 812 1222 1489 1706 1153 1317 864 1585 1767 1418 1144 1286 1475 1178 690 918 1297 875 763 1349 1518 827 929 1340 1466 1388 819 531 625 1070 1322 771 572 444 621 668 699 978 521 423 293 187 181 106 61 57 55 54 52 747 501 386 317 280 260 173 189 255 234 182 115 93 84 92 97 101 115 87 98 109 198 292 363 691 931 988 846 1200 1058 988 1140 1665 1544 1354 1069 2008 1529 1044 2074 1795 2149 2249 1970 1751 1834 1670 817 1315 1541 1728 1799 1927 1613 1758 1451 1450 1410 1283 1111 1143 1021 1122 996 918 909 816 854 902 851 761 735 696 701 791 786 767 748 745 687 648 636 609 640 586 546 511 470 446 443 355 407 499 550 654 732 818 885 1059 1343 1780 2132 2039 1869 1521 1495 1619 1930 2140 2050 2511 2677 2580 2195 1905 1732 1947 3339 2023 1874 1578 1882 1841 1316 2009 2267 2114 2177
121 132 164 209 194 143 174 267 275 434 661 384 484 344 483 673 434 509 498 421 416 419 514 791 1206 1413 790 1353 1528 1195 1034 1930 1141 1157 1508 1172 748 838 1120 1495 762 735 1471 1326 820 1083 1379 1450 1162 1148 627 513 1056 962 1592 885 1298 1258 746 427 410 374 335 236 189 161 111 85 68 52 51 50 289 536 363 289 240 219 185 185 237 224 170 114 91 77 85 80 96 105 66 83 107 176 302 426 532 677 631 892 1325 960 1086 1353 1299 1790 1504 1366 1270 2118 884 1317 1593 1919 2139 2077 1938 2198 1400 1473 1272 1683 1617 1521 1766 1718 1538 1392 1548 1274 1162 1084 1105 1251 1170 1096 964 885 823 900 1084 969 778 750 685 676 760 717 686 661 655 655 638 591 610 513 584 549 501 477 460 431 360 396 486 537 628 697 783 888 1080 1324 1577 1553 1806 1469 1645 1675 1672 1812 2321 2447 2835 2960 2757 2438 2279 1983 2271 3875 2757 1916 2285 2022 1567 1475 2132 2165 2346 2161
108 124 194 158 129 156 183 223 310 543 394 438 311 361 421 711 741 547 663 558 427 439 491 861 819 945 1197 1043 1933 1420 1396 1548 1627 1129 1334 1447 834 1046 1126 1598 1080 700 1450 1249 809 1427 1510 1666 1410 1350 1117 593 467 432 531 878 967 1343 862 975 872 301 233 184 211 210 206 185 159 108 59 52 50 277 219 189 135 176 175 151 197 205 159 123 81 72 71 69 76 99 61 81 97 182 223 313 294 213 240 360 471 614 1080 838 1095 928 1708 1805 1793 2030 1543 1515 1706 1875 2318 2048 1626 1445 675 1238 1899 1838 1532 1468 1124 1324 1665 1193 1579 1314 1287 1370 1688 1183 1166 1121 986 900 824 1096 1127 1071 760 720 695 674 638 628 620 624 617 525 544 654 638 652 647 573 518 481 483 451 422 333 466 502 548 659 720 818 982 1123 1139 1408 1442 1623 925 1195 1909 1928 2099 2416 3484 3703 3488 3289 2837 2485 2438 2988 3948 2075 1959 2383 2050 2067 2042 2401 2148 1863
99 102 113 121 134 161 223 182 194 230 291 313 581 362 644 597 588 560 889 596 527 441 481 525 652 1334 1032 1566 1208 1627 1767 1629 1630 1730 1573 1094 833 1327 1791 1178 1131 584 1434 979 788 1281 1350 993 649 755 656 821 390 375 395 321 286 326 356 337 290 201 185 157 168 195 191 167 374 266 48 46 46 46 45 41 50 58 69 115 147 175 158 112 71 68 54 65 61 76 55 74 82 127 159 455 618 610 943 1008 931 1047 865 476 1214 1268 1446 1423 1871 2104 1924 1875 1178 1689 1357 1704 1432 1441 658 1427 1696 1693 1541 1443 1414 1091 1088 1455 1397 985 1408 1212 1117 1304 1325 1042 971 841 780 752 737 708 684 721 696 634 569 548 541 593 642 659 658 688 705 695 679 628 570 513 489 476 446 397 339 449 530 612 677 737 804 875 1069 1206 1209 839 1371 1305 1256 1758 1612 2459 3410 4006 3850 3963 3374 2853 2703 2669 2811 2454 2469 2325 2191 2171 2219 1742 1610 1594
100 107 116 128 134 143 151 163 174 186 403 281 520 524 807 440 562 663 637 630 753 483 471 523 637 1101 1130 1247 1067 1350 1143 1723 1402 1450 1710 1577 894 950 1446 1288 713 603 1289 886 813 1703 1265 1438 1392 1358 975 362 1085 498 766 1481 680 763 284 309 182 357 146 132 129 111 110 117 164 148 226 49 53 48 67 76 33 77 45 51 93 91 145 118 75 62 45 59 52 60 49 59 80 121 185 345 673 842 666 1132 1181 1417 1012 1238 1244 914 1040 1070 1756 1441 1928 1249 1633 1377 1307 1417 1286 1280 842 1479 1085 991 1261 1886 1307 1368 1219 935 853 867 1392 1400 1232 1055 942 983 888 771 698 692 733 740 754 795 682 552 541 541 586 660 694 720 675 648 704 717 708 680 625 564 528 494 471 442 360 357 473 590 653 679 711 797 916 936 777 1270 1405 1530 990 1850 1911 1761 2642 2845 2789 2614 3234 2865 2582 2497 2459 2350 2220 2185 2551 2368 2424 2318 1685 1840
101 104 115 125 129 134 142 314 411 290 367 259 615 385 341 408 635 660 504 645 665 672 467 488 505 581 577 1077 983 1565 828 1373 1721 1776 1710 2064 905 969 1462 714 1024 1362 1380 738 769 1394 1424 1786 1878 1233 450 774 918 948 902 994 1460 1054 653 415 177 203 223 829 691 244 308 103 84 141 129 60 58 54 79 98 89 32 34 30 55 61 132 120 84 57 40 53 54 44 45 65 84 129 188 409 772 901 994 1024 1293 1087 1279 1564 1121 1431 1609 1700 1659 1646 1945 1349 1309 588 1160 1569 956 492 1239 1422 831 1283 1274 1618 1554 1293 1178 1172 1091 886 964 1027 875 895 943 916 852 684 684 934 1267 1063 1023 1100 682 541 541 803 1106 1234 970 822 655 616 922 804 767 746 652 639 573 507 484 463 439 324 382 464 454 638 669 706 760 762 799 959 822 1149 1504 1835 1284 1782 2035 1989 2043 2270 2551 2602 2663 2397 2305 2229 2169 2110 2034 1943 1867 1786 1759 2488
109 111 109 115 123 138 234 537 362 410 294 357 332 523 440 654 888 680 547 533 793 508 492 706 834 893 575 616 1451 1292 1236 1772 1445 1799 1537 1713 1163 1319 1122 1069 1361 1050 669 1178 932 1329 1465 1568 1204 888 752 1313 1518 1427 778 765 662 414 338 240 374 825 558 1135 781 576 545 223 137 75 88 119 124 63 70 65 97 74 50 30 30 45 97 130 109 65 33 50 56 38 76 67 82 125 165 349 728 830 637 612 699 1083 1158 1219 1480 1674 1187 1374 1626 1424 1022 1292 1600 620 1345 1553 594 948 908 1061 1449 1497 1481 1357 1021 1147 1365 1150 1017 882 1481 1463 1095 903 944 1016 1023 688 756 1273 1097 1396 1389 1070 845 541 541 1114 903 944 843 922 648 638 1005 832 902 923 894 708 638 616 560 477 464 443 396 336 418 542 632 670 629 704 738 832 869 959 1115 1494 1615 1784 1532 1341 1101 1906 1820 1498 1909 2827 2300 2290 2086 2058 1995 1942 1888 2001 1838 1878
103 106 117 133 221 166 290 465 291 270 354 329 355 543 642 892 608 824 465 588 614 473 527 1071 950 1131 1691 832 1428 731 1629 2713 2339 1638 1666 1074 1197 986 753 1437 1640 1199 901 956 880 1386 1508 1518 1431 846 454 1159 1071 1107 1233 1134 966 374 352 536 250 1093 1138 914 952 597 595 477 283 176 146 154 141 107 78 89 67 71 62 30 27 37 60 70 88 76 52 49 33 35 40 60 72 121 241 295 497 502 787 875 896 949 1446 1299 762 1473 1281 808 1606 1332 1219 1405 1051 507 666 592 399 564 555 791 684 829 957 850 727 601 682 691 1117 1385 865 868 877 979 1376 1520 1476 696 733 1361 1396 1750 1360 1125 1009 554 541 668 1613 1424 827 948 638 606 1075 934 874 1007 1056 724 489 661 762 700 598 443 420 354 263 415 498 599 629 653 518 716 865 1373 1484 1298 902 1085 1319 1309 1139 1715 1725 1174 1916 1708 2597 3072 2343 2090 2024 2300 2116 2310 2011 2176
110 113 121 167 234 190 321 345 355 290 269 318 346 441 597 713 429 496 403 588 442 457 503 667 642 725 1330 1462 1525 1313 1653 2161 1792 1634 1443 1171 1712 1371 819 1596 992 780 1090 1092 949 1716 1563 1478 908 1249 470 926 1385 2083 1445 881 486 1058 1035 482 230 1048 937 1270 651 651 571 572 435 267 245 300 442 147 92 68 75 52 52 52 33 24 48 60 62 66 51 28 29 31 39 54 71 101 183 387 457 523 685 780 1040 859 1045 984 563 934 1466 698 1135 711 862 960 474 430 441 239 400 526 527 1136 429 357 378 422 568 614 478 539 611 1031 985 1188 740 1156 1919 1320 1114 712 978 1204 1384 1690 1614 1525 1385 579 541 541 964 1328 853 1045 994 555 1309 1278 739 1024 759 541 574 714 805 779 992 776 423 409 431 278 237 434 527 517 551 634 699 812 696 874 951 1072 852 1358 1715 1228 901 1959 1116 1968 1853 1855 2943 2394 2232 2507 2634 2274 2272 2269
116 124 129 201 289 203 234 309 385 373 370 467 408 431 544 535 653 351 790 405 493 463 479 675 661 931 1562 1249 1081 1360 1860 1818 1954 2077 1478 1627 1521 1590 1267 800 743 959 1113 1544 1013 1695 1705 1402 1243 517 1236 1371 1687 1350 870 1986 1466 1300 1232 738 278 604 605 1057 903 696 617 680 453 248 240 245 725 733 589 81 62 61 48 46 43 20 51 37 58 62 55 25 27 30 62 74 109 106 204 435 431 527 932 1061 1048 1082 885 873 929 575 520 578 418 302 277 178 189 319 854 1042 1330 618 1733 1506 1285 1356 1113 1114 790 1298 1140 1017 743 1069 1803 1709 760 1746 1410 1958 1040 780 1035 1371 1851 1759 1163 1088 1052 636 551 630 1199 1199 892 1107 982 649 526 526 526 526 556 615 657 837 1016 711 798 883 597 447 390 398 415 435 217 288 457 508 614 696 799 728 537 603 909 1464 1253 1232 1508 906 1043 1922 1376 2053 3622 4351 4256 2724 3446 3557 2996 2751
129 134 150 138 191 192 242 343 390 450 416 448 462 475 711 336 320 560 543 400 436 428 477 609 708 1054 1315 1599 1395 1783 1779 1437 2318 1876 1338 1313 827 819 870 1174 824 1708 1139 1192 1147 1515 1766 1830 765 1001 2000 2081 2248 1115 1458 2065 1828 925 800 637 1089 1015 1144 711 901 750 806 350 302 233 179 199 423 726 887 527 99 63 60 59 42 45 55 42 50 55 53 22 44 52 70 89 85 129 199 269 347 461 669 667 604 328 257 246 253 246 265 244 121 240 328 572 872 1255 828 1844 1226 1526 1128 1271 2065 1731 1618 1075 1548 926 1327 1710 1109 876 913 1475 1267 958 1496 1612 1697 910 1022 1024 1207 1373 1514 951 1465 884 582 1290 1285 1006 1306 1289 1308 560 549 1011 1391 1211 777 1019 890 1131 1026 759 712 570 612 528 466 374 292 406 390 206 393 406 426 581 626 563 1183 1321 1410 847 989 1324 1639 1611 1885 1540 1887 1468 3051 3116 3584 1696 1517 2234 2187 2557
146 156 173 168 148 183 177 191 207 217 230 308 298 276 289 348 533 495 394 451 403 438 669 576 641 997 1268 1623 1504 1047 2141 2123 1852 2096 1909 1135 1950 1506 1420 1277 944 1660 1170 1278 980 1540 1315 1280 924 963 1461 2091 1668 1669 2031 2176 1603 1187 1018 801 925 904 1018 867 523 869 732 674 321 234 231 190 313 826 424 440 295 104 60 79 54 40 57 42 39 39 20 40 44 67 89 66 85 90 125 132 149 164 160 166 128 147 187 188 172 185 86 265 491 923 1271 975 1452 1557 1302 1511 1659 1725 1990 1298 1952 1808 1888 874 2131 2052 1401 2115 1023 1028 2208 1388 1840 1157 1480 1599 2044 1063 1250 1184 1393 1945 1508 1319 1664 806 753 1466 1462 1391 1099 1580 927 526 643 1295 1301 832 1311 947 1120 1269 1062 1133 1323 714 572 635 560 654 591 525 302 223 189 258 349 363 393 600 483 1219 1249 1646 1708 1200 1931 2033 1073 1027 1224 1545 1628 2502 2000 2290 1387 1287 1544 2463
160 167 196 215 167 167 170 184 200 229 256 332 402 535 438 587 483 440 362 446 402 513 550 673 742 986 1430 2019 1623 826 1722 1051 1420 1731 1075 1427 1756 1005 1657 1161 1232 1735 1670 1554 982 1586 1108 668 1661 1454 1402 2407 1715 1527 1884 2194 1755 1526 1114 1092 1032 1404 1444 575 558 713 713 683 715 257 244 219 225 490 366 439 458 195 92 73 62 37 54 35 18 16 17 38 45 37 65 61 66 66 72 76 110 113 127 123 136 146 146 133 125 148 168 370 838 1042 997 1364 1845 1857 1356 1892 952 1542 1789 2122 2306 2066 1910 1132 1702 1653 1918 1615 1409 1145 1611 2239 1716 1389 1815 1498 1743 1530 1890 1247 1882 1543 1252 1987 1809 900 1303 1157 1289 1614 1170 1278 806 526 760 1476 982 974 1266 845 1092 1635 1065 965 767 611 672 678 730 943 1199 1052 855 1310 872 427 334 256 361 605 632 655 1130 1850 1292 1472 1894 1231 920 767 1879 1453 1344 2018 2167 2012 2050 1195 1133 1777
159 179 198 228 220 194 167 268 219 221 226 330 283 343 396 386 488 373 340 371 423 509 614 607 599 636 1079 1557 1676 761 1851 1091 1843 1320 1164 2077 1478 1706 1611 1001 1547 1635 1945 1442 1012 1607 991 733 1673 1736 1616 1825 2006 2292 2766 3059 1825 1474 1320 1338 1265 672 1452 1023 368 584 499 426 337 404 249 239 212 319 330 506 509 441 193 143 68 34 46 120 27 16 35 38 45 97 56 52 57 57 56 68 73 88 96 117 105 101 114 76 75 62 64 80 979 1489 1360 1134 1647 1788 984 1950 1498 968 1757 1541 1514 1775 1698 1804 2564 1983 1774 1490 1806 1549 1389 1817 2537 1604 2030 1652 1548 1954 1621 1565 1408 1724 1874 1095 1436 1083 1437 1431 1637 1228 1572 1433 718 563 539 1476 1356 1387 1063 1107 1205 1071 707 638 547 528 726 974 1021 1010 1004 1506 1797 1607 1423 1081 974 322 263 548 495 481 535 643 815 1274 1328 725 739 1117 1702 1836 1785 1807 1693 1793 1609 1907 999 1016
164 210 219 205 226 189 189 200 186 197 204 211 289 263 500 429 340 323 357 321 339 344 402 438 823 1065 1348 1427 1035 1211 1456 2034 1701 1166 1116 1580 1501 1925 1306 1783 994 1650 1792 1329 1503 1374 1836 1504 779 1324 1997 2147 2484 2769 2611 2373 2640 1406 1511 1026 1241 673 335 870 903 368 407 398 374 327 257 241 235 250 298 346 409 455 480 305 658 92 40 14 43 37 33 39 31 40 56 48 46 45 45 54 81 116 95 50 28 8 8 8 12 20 22 25 19 17 510 1050 580 789 972 1588 419 1833 1477 1306 1577 1101 2153 2400 1887 2180 2457 3189 2006 1743 1849 1683 2095 2642 2490 1913 2088 2643 1939 1602 1580 1771 1765 1855 1268 1242 1390 1275 1222 852 1440 1143 1091 756 565 1143 1363 1014 1221 876 757 577 783 1185 1051 572 1539 1081 1155 1139 1492 1230 1497 1434 1357 1437 1405 234 156 251 344 353 394 475 551 594 696 1145 1665 1193 1071 1133 1538 1039 1237 1616 1520 1665 1792 818
173 164 233 210 175 203 220 236 225 207 225 289 225 234 256 257 267 310 340 396 427 502 458 373 394 1176 1372 1232 723 1259 1466 1490 1752 1206 562 1026 2484 1732 1158 1497 1348 1583 1771 1639 1677 1993 1598 883 1409 1190 1749 1678 1498 2041 2613 1914 1480 2063 1094 929 849 570 666 667 779 422 260 265 260 303 299 286 251 250 262 242 355 853 586 293 927 520 58 13 11 33 26 27 28 39 30 38 43 36 42 51 72 31 8 7 8 8 8 6 8 11 27 1024 67 20 23 55 1171 1334 1438 847 1373 1402 1630 736 1427 1784 1803 2339 1580 1813 2099 3145 2170 2165 2656 3293 2686 3062 2353 2721 2783 2201 1968 2148 1822 1857 2029 1744 1337 1355 1851 1578 1508 1393 1238 1163 1497 589 706 1634 1447 1224 931 1094 590 1105 960 1219 1140 573 592 906 1136 1054 1606 1601 1310 1072 1027 1213 975 173 477 583 176 302 341 351 428 535 538 663 693 1567 1674 1401 896 746 1052 998 791 1110 1450 707
121 149 139 149 148 156 246 240 260 220 304 366 241 242 256 274 298 318 506 709 693 630 585 613 665 700 925 657 1473 1364 1780 1682 1357 1651 481 1069 2012 1427 1710 1631 1477 1561 1555 1484 1757 1465 950 1383 1623 838 1163 1389 1869 2605 2416 2121 1701 1324 1298 969 693 597 496 404 260 243 212 245 232 195 213 377 232 242 246 221 547 794 567 355 949 314 64 10 11 9 23 27 29 37 26 48 71 53 45 30 0 0 0 1 1 9 221 435 701 1245 866 1516 1016 326 39 30 35 44 384 610 1413 1659 421 1597 1637 1170 1253 1398 1689 2377 3407 3503 3451 2632 2191 1918 1776 2187 1980 3016 2972 2722 2606 2353 1956 1794 1613 1507 1409 1399 1557 1722 1439 1088 711 604 578 923 1076 1467 1531 1343 1151 1722 734 1067 1255 987 1282 1017 1350 559 1174 1541 1635 1503 1086 1058 1019 1235 615 130 679 1308 808 297 289 344 396 442 438 497 484 851 1234 1040 844 1023 1059 835 835 1534 1880 1222
140 143 142 142 147 147 210 182 579 267 230 328 259 318 352 362 463 715 701 515 549 563 481 454 481 486 593 1292 1386 1718 1590 1647 1098 1940 462 1555 2041 697 999 1309 1317 1177 995 605 1104 1359 1129 1131 1099 1212 930 1844 1469 2131 2676 2942 2117 1624 1145 1372 1030 1204 1122 287 195 109 78 75 75 127 128 141 136 227 259 250 391 535 399 393 217 35 13 9 8 7 21 23 26 27 41 60 7 25 21 0 0 0 0 5 103 712 659 565 323 371 1063 881 1387 1000 321 905 280 46 71 373 392 710 756 1237 1576 2071 2136 2072 2595 2846 3061 2552 1847 1695 1928 1304 1188 1287 1559 2998 2860 2248 2104 1946 2068 1742 1579 1502 1432 1439 1627 1345 1296 1213 1624 1375 821 1101 885 1459 1328 1077 1293 1515 653 1073 1075 1377 1534 1010 494 862 1466 1248 1232 1087 660 1564 1269 668 645 426 1313 927 812 919 387 177 410 456 383 385 399 620 985 1162 1429 1194 1322 543 635 587 551 491
147 164 185 212 222 160 162 170 164 198 197 216 310 471 626 700 516 600 633 467 467 452 474 526 657 1361 1545 539 1346 1205 1663 1107 719 1204 497 1106 454 989 1615 2057 1959 871 1856 1251 1064 874 1015 1143 1158 1449 1141 1256 1153 1456 2125 2701 1702 1486 1489 967 1068 1179 508 634 423 372 212 266 180 87 102 115 145 194 241 257 111 273 155 33 23 8 7 7 8 11 16 19 22 28 36 55 17 36 0 0 0 46 73 95 479 946 763 993 960 1135 594 493 1356 896 951 530 1521 1177 91 260 380 454 640 768 871 1344 1876 2149 2305 2548 2235 1714 1012 847 724 887 1752 2454 2690 2799 2721 2831 2303 1938 1744 1802 1721 1555 1918 1990 1774 2156 2238 1583 1014 1236 1602 1284 1359 1189 1655 1223 1458 1360 603 1378 1468 1184 796 628 1423 1430 1186 1150 1265 697 1537 480 255 119 379 898 575 1203 1849 1519 1305 612 338 193 195 202 378 385 442 680 648 427 424 454 434 302 322 336
159 168 199 267 228 213 544 441 184 173 209 213 259 286 327 459 605 553 599 536 474 449 530 723 779 1350 1498 1320 693 1248 1243 1315 1643 400 417 547 1041 1576 1641 1017 1333 1519 1796 1512 776 600 447 871 1510 1349 1840 804 1201 1730 1465 1838 2748 3124 1546 2113 754 673 505 430 321 185 154 136 120 128 103 147 148 208 199 271 157 58 32 25 5 6 6 5 7 8 14 17 19 24 31 40 36 3 0 0 2 50 82 490 979 1219 895 909 1262 1228 1459 266 1707 1275 841 1792 1601 1307 60 94 935 1199 1481 1523 1523 1502 2333 2527 2544 2528 1356 727 405 559 1375 2033 1896 2055 2725 2605 2150 1894 2099 1420 1493 1566 1498 944 1613 1466 1838 1990 1640 1124 1395 1486 1944 1668 1303 1743 1799 1620 937 1275 667 1438 1628 1010 510 1590 1178 1791 1198 1817 1189 1157 107 311 896 1346 1028 1007 1474 1070 932 1695 1470 1003 589 870 1183 844 224 286 379 370 361 254 366 503 436 396 469 455
190 188 184 194 277 402 212 180 179 184 187 189 219 335 394 272 281 289 317 396 340 459 516 551 583 629 1222 1015 1262 1236 1266 1413 1224 708 374 847 1440 1044 1035 1311 1501 1755 1716 1165 728 899 1754 399 1436 1338 1079 1631 1290 777 1799 1905 2266 2945 2230 1014 1470 1047 618 588 651 548 380 273 198 195 152 194 157 260 189 115 30 27 27 5 4 5 5 4 6 8 9 12 16 19 23 34 70 0 0 44 24 84 149 160 94 460 1063 1175 972 930 1709 1090 795 1340 1473 1326 1469 321 62 99 660 1055 1320 2227 1716 1491 1884 2189 2028 1704 1167 235 440 1065 1129 1241 2231 2318 2701 1849 1763 1176 1088 983 944 906 695 750 860 1222 1396 1425 1689 1548 858 964 1464 1675 1993 1479 1466 1425 1246 1242 1217 963 1477 1475 712 770 1208 1330 1387 1189 1322 100 1013 1415 1566 1687 1410 1586 1571 1955 1102 1273 799 569 1395 1350 913 938 1020 727 532 414 423 770 994 529 444 432 434 312
225 210 193 196 215 191 176 195 259 201 215 229 228 233 211 215 220 228 240 281 313 346 447 636 707 1098 895 890 1744 1087 742 1332 1013 344 450 1319 1327 799 1441 1863 1585 941 1679 1334 864 710 1312 842 357 1443 1491 954 1570 1230 386 707 946 1352 1010 979 556 634 490 705 829 601 522 437 403 428 304 179 181 187 87 44 25 23 6 3 3 2 2 2 5 5 6 4 2 4 5 21 31 0 83 63 85 114 512 1026 630 471 110 708 1826 868 1879 1489 1166 1212 1498 1175 1109 71 75 225 1437 1773 1854 2287 2136 1790 1728 1344 1629 925 116 41 644 456 686 1363 1428 1573 1931 1918 2052 1429 1145 674 1105 574 695 1091 1357 1073 1158 1171 1079 1116 620 1460 2072 1359 1574 1040 758 639 1618 1326 1330 1630 1574 1097 472 372 514 480 447 529 814 95 1378 1287 1597 1997 1063 1086 1417 1961 1810 952 559 1185 832 692 852 1022 1488 1517 1419 1196 1362 1538 1500 974 548 422 518 463
340 254 201 175 175 182 190 208 229 303 303 274 246 251 251 247 253 268 267 265 288 326 358 428 604 984 1016 741 1549 1647 700 1256 420 339 732 1309 383 667 1160 1814 1823 1837 1458 1547 922 563 1614 1220 1603 346 363 929 485 346 346 346 360 568 681 639 377 237 176 428 651 590 486 438 419 457 248 215 203 38 22 16 23 5 4 0 0 0 0 0 0 0 0 0 0 0 0 0 0 0 18 54 92 144 272 425 804 1460 820 133 1472 1476 1411 1299 1291 875 1679 1466 98 283 828 428 819 1410 1765 2040 2357 1897 1211 1566 1288 610 -3 20 -3 707 1570 1320 1845 2237 1422 1300 1162 621 1059 475 379 470 555 1060 1172 771 1093 1733 759 1246 1064 325 728 1088 1074 1917 1414 649 1601 1142 1245 1192 1367 500 1287 1190 949 1288 941 596 360 94 1086 1109 1318 1553 1383 676 1637 1563 795 605 1231 1640 1528 778 1057 842 775 928 1572 1785 1800 1482 1620 1708 1007 622 503 530
252 211 203 195 198 216 238 394 606 555 705 682 431 385 318 325 523 632 534 348 270 301 327 355 429 935 1090 942 1318 721 577 631 331 450 947 417 1514 1338 1143 993 1376 923 941 1821 1281 544 569 696 369 354 505 724 400 1016 1531 1163 1345 1121 1250 815 793 129 91 92 231 515 518 408 370 326 209 186 131 103 49 32 26 0 0 0 0 0 0 0 0 0 0 0 0 0 0 0 26 28 43 64 107 441 664 933 743 784 1201 1045 190 1380 1276 1262 1656 1313 1136 822 214 354 1326 727 668 1744 2203 2125 2363 775 1181 1374 792 -3 -3 178 821 1252 954 1292 1888 1424 497 660 461 649 160 232 305 544 1284 560 495 893 1463 1253 103 710 891 911 1211 1232 1284 1875 1448 1457 697 587 932 1203 1199 1419 1077 1449 1856 940 1138 1185 87 659 1306 1308 1328 1225 1490 1032 562 577 711 1739 1722 1414 1312 959 1708 1571 1712 1641 1007 932 873 873 1017 827 1136 883 788 673
282 248 238 248 287 339 690 511 393 461 497 733 690 471 448 305 336 440 471 499 516 353 299 290 310 418 701 704 767 1185 665 337 375 411 343 928 1375 1872 1123 1333 1530 1799 969 1390 1309 1323 374 759 1582 868 1674 1744 863 1230 1608 1305 1205 956 1260 804 869 185 72 61 44 33 183 357 333 271 134 126 112 54 41 31 0 0 0 0 0 0 0 0 0 0 0 0 16 0 0 0 6 21 55 106 317 870 869 1443 527 867 1195 1862 1454 633 396 1301 1697 1561 1553 895 342 600 1178 996 1635 1105 843 1328 109 777 1313 355 -3 223 113 445 993 162 445 1080 633 1190 871 247 42 -1 130 358 514 578 775 525 7 505 91 7 6 13 51 202 1032 1552 1298 1330 1107 842 958 1042 1328 1187 1145 1732 1909 1549 1214 1168 940 903 78 291 1137 975 1529 1494 1692 941 282 1458 1750 1192 1388 1632 1244 1482 1635 1592 1126 1229 1009 943 922 1309 1767 1121 891 1221 763 1162
248 230 256 301 384 659 419 549 483 480 422 665 538 490 676 331 296 382 466 590 470 738 933 300 287 323 635 920 1227 514 341 383 337 446 1243 1024 576 1511 1499 1502 716 1512 1247 1271 1432 386 1040 1439 1287 1413 1483 1689 1233 1986 829 985 1251 1257 142 308 166 212 43 36 29 24 17 14 177 203 156 130 122 60 17 0 0 0 0 0 0 0 0 0 0 0 0 0 0 0 0 0 1 3 43 147 345 652 1135 1380 814 905 750 897 1187 992 1294 1055 1597 1075 636 381 587 1293 1335 990 1649 1703 203 204 0 913 648 -3 74 3 6 226 930 347 6 554 32 423 421 174 -1 -3 145 525 800 834 1032 6 0 0 0 0 0 0 12 9 722 1442 1737 156 288 641 764 744 597 583 672 1126 1297 1612 1474 1399 1409 1194 664 153 281 1436 1888 1047 1479 1071 516 430 428 685 1006 1649 1596 1455 1688 1411 1790 1636 1681 2061 1551 1381 1851 1178 1503 1680 887 1680
217 217 260 376 308 488 331 388 593 825 477 619 564 702 539 428 360 323 312 326 337 410 419 646 291 291 402 471 329 335 316 328 393 509 1218 897 1523 1339 1938 1720 1256 992 417 403 452 955 1924 1560 1647 1754 1786 1402 1709 1244 974 802 1009 617 61 57 31 23 21 15 17 16 14 8 7 121 99 49 72 58 0 0 0 0 0 0 0 0 0 0 0 0 0 0 0 0 0 0 0 0 1 95 654 886 1273 1025 903 840 548 482 1048 1213 1486 1588 1858 1487 1071 872 799 996 1846 512 164 0 0 273 0 524 503 -3 9 58 1110 322 871 -3 401 840 407 619 632 309 491 -1 430 96 838 20 193 0 801 549 571 671 641 690 838 304 35 56 82 953 1315 295 1362 1288 1001 1316 559 312 252 229 336 557 1038 962 904 315 124 963 1217 1249 275 251 332 536 1146 1492 1807 1593 1235 1123 864 1293 1691 1659 1332 1581 1854 1358 1261 1882 1055 1870 1326 1771
208 224 277 365 356 453 611 490 557 732 663 528 463 561 508 562 477 534 654 561 397 355 340 319 291 296 298 294 299 329 317 373 530 789 1414 1602 1688 1276 1079 1815 672 1057 1479 1077 894 1571 1857 1878 1785 2205 1609 1663 1342 1108 1275 1037 400 258 400 337 25 50 22 13 10 10 7 4 5 4 8 48 0 0 0 0 0 0 0 0 0 0 0 0 0 40 39 0 0 0 0 0 0 0 0 0 5 516 899 660 552 511 1178 816 1198 1410 589 448 1233 493 1105 1491 1508 1325 892 1007 770 0 714 761 0 0 0 -3 354 457 452 288 24 -3 77 219 176 544 486 420 346 0 0 278 629 0 0 331 25 16 863 1379 973 243 1090 1005 243 765 670 985 1516 429 1274 1283 1567 925 1433 946 225 404 343 95 107 90 67 69 65 69 343 76 172 255 106 265 430 462 650 950 1254 1043 447 587 483 1211 1280 1864 1442 1824 1119 1428 1857 1232 1572 1802
201 216 229 232 242 269 338 468 308 374 354 434 553 412 490 408 376 368 359 377 470 755 628 408 299 289 305 320 330 385 361 361 401 558 948 1154 1387 1625 1471 1609 901 1312 1469 1703 761 1444 1863 1581 1765 1778 1937 1465 1393 1213 889 469 811 854 999 657 199 16 14 12 3 7 6 5 0 0 0 0 0 0 0 0 0 0 0 0 0 0 0 34 46 50 39 60 0 0 0 0 0 0 0 0 0 0 0 0 36 959 623 923 908 104 353 443 635 324 595 312 948 1404 1205 221 0 578 509 495 0 0 0 370 110 1074 759 387 500 0 398 352 58 10 0 347 0 81 0 89 0 0 0 388 238 824 858 114 557 994 1303 1096 489 623 1226 802 845 779 1184 1293 1418 1308 681 800 597 1215 595 513 612 680 665 804 58 55 60 547 1014 1052 1136 1014 391 440 742 478 179 238 212 1299 1385 880 449 872 1247 1206 1759 1967 1531 1485 1110 1122
272 348 230 237 266 254 253 273 283 287 290 297 313 324 345 373 357 376 406 371 337 309 307 311 340 337 367 382 421 496 417 388 361 380 551 1065 1117 1092 1497 1088 1298 1157 1842 1808 1561 1616 1681 1294 1321 1853 1305 1088 1317 753 875 1214 515 765 1087 889 188 51 11 44 19 1 5 0 0 0 0 0 0 0 0 0 0 0 0 0 0 33 39 67 67 71 55 77 7 0 0 0 0 5 661 990 929 0 0 0 0 0 47 0 0 181 1032 735 909 58 51 485 445 1146 519 871 945 327 0 0 0 0 52 280 735 639 412 75 462 0 157 0 26 287 0 15 0 0 0 0 0 0 195 15 0 486 86 717 400 640 864 746 676 1178 722 1100 1128 951 1030 1785 1230 941 881 1491 851 1069 547 1345 841 1545 1365 829 88 51 64 63 1413 1411 763 1850 1577 1009 446 628 1671 1404 1216 366 1092 1657 1808 1119 479 824 1292 1384 1277 1289 1499 1472
373 581 302 258 335 356 309 722 609 414 367 372 357 354 387 436 486 674 535 370 390 395 397 395 422 476 571 794 914 1004 897 781 966 909 1079 1604 1287 1086 1649 921 1701 1843 1632 1059 1343 1582 1742 1664 1463 1005 1539 843 927 1075 1080 719 628 691 469 473 318 194 10 9 9 5 0 0 0 0 0 0 0 0 0 0 0 0 0 0 47 41 57 74 54 53 78 66 44 6 6 6 6 146 718 757 810 174 565 1168 507 268 81 127 0 7 0 766 283 17 702 49 706 1637 1256 465 313 647 20 0 0 0 56 371 390 448 0 107 0 0 0 13 34 0 252 17 0 0 0 0 0 30 0 225 519 276 534 466 1018 116 89 94 617 863 780 522 1634 1392 1506 1933 1115 1057 1190 1495 1082 1096 698 764 1441 1372 1390 1094 1145 172 56 60 393 1034 1419 1118 1356 1431 1611 563 602 1063 1344 1653 444 833 1168 981 948 1527 1281 804 683 522 468 693
356 316 310 259 273 296 342 326 336 368 386 649 647 551 576 673 442 352 368 369 396 410 435 473 616 868 766 780 951 865 999 1068 1089 1176 1452 1578 1183 1473 1150 1657 1444 2043 1847 1145 743 1433 1759 1315 1622 715 536 233 367 1480 1407 1090 441 27 24 22 183 201 7 40 4 0 0 0 0 0 0 0 0 0 0 0 0 0 40 65 53 53 61 47 54 63 99 83 53 44 23 13 62 368 396 758 1070 345 875 603 422 587 764 1093 142 740 150 7 8 841 1143 872 365 735 427 594 5 86 0 0 0 429 349 60 287 539 26 0 201 0 0 0 0 0 0 0 0 0 0 0 0 42 135 0 321 0 633 228 413 0 0 25 217 261 788 781 750 541 1215 1495 1492 1010 865 1706 2120 1315 1252 1556 1350 1274 1234 1012 1554 809 201 53 47 126 271 1114 890 1128 1470 1077 1275 957 842 826 916 834 739 1024 1139 957 1025 962 1368 1333 1422 1004
280 303 236 283 375 517 344 769 569 516 723 561 543 643 505 396 347 349 365 392 413 444 1098 800 566 661 777 898 1145 949 1007 1063 1364 1532 1380 1558 1807 2061 1631 1710 1457 1850 1927 1810 661 377 1203 968 1353 403 157 633 363 582 1000 33 313 158 46 19 33 7 6 38 44 0 0 0 0 0 0 0 0 0 0 0 0 38 42 63 78 55 53 49 96 72 57 81 92 84 83 66 156 701 368 822 810 292 1062 693 486 908 962 883 839 149 273 9 9 987 799 962 1037 126 214 0 40 26 0 0 0 32 263 182 0 15 48 0 0 0 0 0 0 0 0 0 0 0 0 0 0 326 89 0 0 150 92 28 39 0 56 282 154 7 219 137 445 347 1152 1058 348 609 1406 1084 873 1204 1449 1361 1172 967 1381 706 624 818 792 76 45 259 497 131 933 1166 1179 1302 1588 1680 1575 1554 1163 1226 1118 1274 1612 1337 1115 1238 998 1523 1187 1105
343 321 233 446 348 359 384 350 505 813 480 450 484 393 339 349 355 361 390 426 708 850 775 765 757 675 669 838 779 755 763 758 758 1808 1800 1443 2210 1775 1108 1935 1241 1473 1740 1719 1592 1450 757 493 596 446 1415 1469 1553 583 92 432 74 6 10 10 10 8 4 6 10 0 0 0 0 0 0 0 0 0 0 34 26 36 64 98 60 53 46 61 96 96 78 87 66 70 71 96 196 479 580 1133 529 482 1080 955 406 417 548 833 366 733 791 11 633 25 54 647 0 212 158 176 0 0 0 0 0 0 87 0 0 0 0 0 0 0 0 0 0 0 0 0 0 0 0 0 0 0 0 0 0 0 0 0 43 67 709 827 367 815 916 837 777 1317 601 768 424 498 1069 123 828 984 1089 1287 862 746 613 517 394 241 92 70 45 678 301 1270 987 471 590 765 922 1053 1087 1442 1589 1181 2182 1977 1894 1622 1258 1468 1468 1321 1605 1907
592 339 250 377 404 406 560 517 367 410 341 373 328 303 316 338 361 393 524 715 682 797 728 957 892 844 681 713 741 896 1051 1353 1602 1248 1517 1652 822 1641 1190 1609 1230 1795 485 1012 1684 1438 1116 374 805 1431 1511 1354 1502 1272 715 861 109 12 8 7 7 6 5 5 29 52 0 0 0 0 0 0 27 50 18 23 18 44 53 61 47 55 51 84 96 98 78 66 66 69 107 393 662 619 704 1058 466 1064 978 1106 282 540 546 220 1076 964 662 14 124 767 297 756 793 0 24 32 71 0 0 0 176 0 0 159 0 0 0 0 0 0 0 0 0 0 0 0 0 0 0 0 0 0 0 0 309 199 366 43 93 675 0 46 0 0 532 670 719 860 561 1082 999 221 205 184 872 1003 1101 1279 1162 1126 1378 899 860 706 140 52 648 750 1096 1175 690 803 1226 1734 1763 1687 1749 1693 1400 1349 1871 1814 1550 1465 1379 1470 1730 1438 1291 1159
345 328 277 265 278 290 343 424 411 332 284 279 292 305 352 446 396 421 512 622 739 890 1045 560 774 678 616 587 585 624 1072 1618 1310 1788 1100 664 745 1448 1717 1064 1651 1081 1003 256 355 232 893 1191 1451 1227 1088 973 798 677 244 366 31 21 12 6 5 5 0 0 0 0 0 0 0 0 0 38 50 27 24 33 34 33 45 101 86 90 91 81 65 78 72 78 91 125 196 405 899 1078 1056 853 834 911 1131 1261 448 1303 1007 361 362 897 194 40 338 1319 1421 902 0 0 566 491 164 0 201 42 114 0 0 57 239 0 0 0 0 0 0 23 158 0 0 0 0 0 0 0 0 0 0 20 0 88 10 9 0 0 0 188 475 791 0 481 9 770 981 378 14 1049 1199 1042 713 629 728 1409 1515 804 620 1098 547 47 39 315 612 364 146 352 427 551 782 1540 1806 2169 2078 1780 1917 1819 1813 2120 1938 2349 1863 2709 2154 1788 1613 1883
482 529 429 400 334 367 376 366 392 418 275 273 310 351 376 353 382 438 602 603 604 501 487 521 542 578 600 645 675 683 601 790 1300 600 1403 1242 1567 1227 1541 513 1408 788 207 516 1240 1212 1100 1201 1852 1413 1228 1019 1189 509 584 639 351 117 13 8 4 0 0 0 0 0 0 0 0 0 0 38 33 44 36 39 40 90 67 93 74 71 76 61 64 69 81 116 146 178 209 392 295 762 1029 1034 1075 1156 909 1119 739 1047 1325 670 1116 1482 552 928 423 701 833 569 0 643 865 29 0 0 183 405 80 0 0 0 0 0 0 0 0 0 0 24 0 0 0 0 0 0 0 0 0 0 0 0 0 0 0 0 0 0 50 73 0 0 429 30 3 476 90 1 827 430 801 399 444 730 1297 1129 1242 1080 741 190 65 60 39 180 178 251 330 407 454 653 989 903 1507 1170 1381 1951 2391 2360 1894 1863 2005 2181 1555 1697 1620 1662 1759 1649
874 495 419 364 526 471 350 355 392 259 271 290 313 345 360 350 378 421 479 438 726 820 880 520 530 603 587 717 793 1245 947 820 905 1268 1400 1501 1336 1239 858 159 1097 653 1248 1306 944 976 776 972 1211 1361 1410 1014 226 80 56 48 26 21 14 8 0 0 0 0 0 0 0 0 0 0 0 0 32 34 35 22 92 87 102 92 134 56 84 57 66 79 97 145 185 321 639 464 890 1013 563 710 783 1049 1325 415 1090 774 1065 785 658 1257 418 1141 924 741 1100 820 1051 443 874 371 125 423 495 206 0 0 0 0 0 0 0 0 0 0 0 0 0 0 0 0 0 0 0 0 0 0 0 0 0 0 0 0 0 0 0 0 0 0 0 23 0 0 3 247 147 390 99 285 872 960 866 1298 975 391 140 24 34 348 938 780 656 764 482 493 542 1008 837 1143 1111 1063 1194 1407 1258 1250 1362 1517 1435 1412 1359 1441 1481 1509 1468 1428
623 553 507 426 325 437 612 260 246 261 274 343 332 365 405 400 437 363 391 411 505 538 456 588 834 944 814 940 623 643 781 1000 1271 637 832 889 1258 1087 163 1234 1488 397 1037 904 718 579 1141 395 519 407 259 183 635 582 756 480 71 8 6 0 0 0 0 0 0 0 0 0 0 0 0 0 26 30 23 26 81 80 114 103 128 59 66 82 111 111 134 131 248 444 463 796 669 912 599 1372 1273 912 330 1073 1224 1137 1134 696 803 463 909 712 1064 1552 1489 1586 1295 423 205 76 195 210 252 0 0 141 0 0 0 0 0 0 0 196 0 0 0 0 0 0 0 0 0 0 0 0 0 0 0 0 0 0 0 0 0 0 0 0 92 142 123 0 481 246 460 37 35 367 389 688 878 749 643 453 55 21 27 325 254 768 1295 1039 1093 1028 798 915 1185 1133 951 1122 1076 1033 1740 2108 1935 1500 1208 1366 1599 1581 1608 1806 1487 1406
377 508 393 360 557 370 325 234 246 265 311 433 387 674 733 603 565 482 544 558 508 478 467 807 944 783 805 750 761 1032 894 859 533 1561 949 1168 993 125 806 1283 223 456 967 1513 1317 1180 1110 873 658 946 835 864 966 1053 294 102 7 1 0 0 0 0 0 0 0 0 0 0 0 0 0 0 0 5 3 22 78 52 100 83 35 84 101 108 124 90 111 145 173 789 557 576 654 570 733 673 1362 348 375 336 791 555 180 1166 946 741 632 1142 1190 1510 651 734 592 357 0 0 0 57 0 0 147 65 232 0 0 0 0 0 73 0 0 0 0 0 0 0 0 0 0 0 0 0 0 0 0 0 0 0 0 0 0 0 116 133 480 0 0 133 417 2 14 21 153 52 48 116 441 1123 1125 11 19 17 22 105 916 1036 505 675 913 1231 989 500 382 463 828 580 673 814 1052 1680 1167 928 963 1055 1433 1574 1945 1810 2604 2097
515 466 376 435 298 226 221 236 251 267 316 408 481 576 949 508 581 866 876 592 801 766 1051 640 498 533 516 568 559 548 392 512 884 438 242 104 782 1298 852 213 793 624 1457 1316 1000 952 871 1119 1446 2449 1901 964 1068 461 681 301 11 0 0 0 0 0 27 37 0 0 0 0 0 0 0 0 6 21 24 29 34 87 53 50 100 87 82 85 97 104 139 80 231 255 278 270 204 356 159 126 178 417 566 1408 464 409 315 585 1608 1228 1303 1080 801 1030 654 1177 502 0 500 833 25 174 0 417 27 631 318 0 0 0 0 229 37 0 0 0 0 0 0 0 0 0 0 0 0 0 0 0 0 0 0 0 0 65 74 206 148 0 0 0 233 751 5 5 8 11 23 28 233 598 447 102 5 10 13 12 14 18 35 58 356 752 630 219 254 144 240 322 333 393 543 706 1332 991 828 840 1090 1161 1478 881 1234 1028 1362 1120
327 732 395 244 219 252 358 388 264 277 356 387 530 571 723 749 574 825 572 811 522 530 566 765 998 617 723 469 386 725 659 594 1005 237 817 1495 815 90 178 685 840 1074 1595 1047 920 536 732 890 1150 1317 1184 558 774 781 457 222 0 0 0 0 0 0 21 0 0 0 0 0 0 0 0 0 19 23 47 66 94 89 91 115 79 75 74 77 58 58 64 167 238 75 657 1032 171 952 364 977 126 1130 1010 588 818 693 366 1327 841 730 1018 652 1168 808 552 88 0 758 1025 571 133 22 376 494 50 14 30 72 0 0 0 95 0 0 0 0 0 0 0 0 0 0 0 0 0 0 0 0 77 12 12 121 0 28 0 0 0 0 0 101 4 0 2 4 5 6 8 11 11 28 10 25 10 14 12 8 12 18 20 26 42 63 69 91 111 225 201 199 543 518 699 535 501 1228 656 725 990 897 567 904 697 638 601 672
615 332 191 218 237 355 639 326 260 285 442 386 345 466 668 499 548 619 754 502 845 829 593 860 867 962 458 267 834 785 1239 1266 839 79 307 75 923 1032 622 1204 418 1540 992 1180 761 180 897 1383 361 925 1126 487 275 155 95 123 36 0 0 0 0 0 0 0 0 0 0 0 0 0 0 0 18 55 64 86 120 157 111 102 98 119 97 109 87 58 58 58 58 58 303 974 443 1403 1010 355 414 126 635 405 249 142 418 1052 888 1045 1055 644 1310 1459 754 112 419 901 952 1028 461 442 205 387 275 64 482 0 0 33 4 502 1 0 0 0 0 0 0 0 0 0 0 0 0 0 0 138 214 512 196 70 2 41 96 5 0 0 0 0 0 0 0 0 0 0 0 6 6 5 9 5 6 4 4 11 16 20 25 30 39 52 156 82 296 314 93 138 165 131 170 132 145 514 533 608 423 431 427 518 544 563 583 612
176 209 291 469 320 435 346 331 285 268 292 612 724 452 427 434 482 425 469 609 573 977 651 712 846 409 244 233 610 666 320 75 75 263 606 506 1376 1082 932 714 1370 1312 811 1111 1219 969 178 178 207 190 156 719 957 726 276 136 55 0 0 0 0 6 0 0 0 0 0 0 0 0 0 21 7 80 49 64 94 130 149 141 131 153 187 187 224 183 259 242 545 571 68 118 209 444 1200 1298 371 748 947 288 654 446 710 1601 938 338 1102 416 791 394 409 1211 1270 1435 913 776 502 711 156 75 61 0 0 0 0 211 24 0 294 0 0 0 0 0 0 0 21 0 0 0 0 0 9 347 16 268 139 194 287 232 29 6 0 0 0 4 7 0 0 0 0 0 7 2 8 7 8 7 4 4 4 12 15 87 580 74 279 350 247 181 245 443 28 261 18 24 294 200 247 423 382 239 471 378 396 465 529 570 574 606
463 470 542 458 314 304 368 355 381 291 268 342 308 289 372 492 539 730 732 580 569 832 952 480 613 512 207 368 82 75 75 204 900 844 1386 1201 1243 986 714 836 654 897 475 814 1271 1225 1099 810 1086 330 91 118 727 769 274 38 0 0 0 0 0 0 0 0 0 0 0 0 0 0 0 28 15 44 78 76 81 138 214 217 219 261 278 242 230 326 609 1094 1102 1096 1137 120 696 367 212 561 910 1007 982 676 729 210 482 1748 1299 566 387 942 487 549 871 1455 1194 911 784 772 356 207 257 153 0 104 168 0 36 40 0 97 0 0 0 0 0 0 0 197 48 58 0 0 0 0 0 2 0 12 524 116 0 0 0 0 0 0 0 0 0 0 0 0 0 0 0 0 1 6 1 1 1 1 8 7 8 8 6 647 42 123 260 7 408 11 87 15 6 21 151 244 326 346 335 264 340 351 424 450 452 572 578 593
290 283 283 309 277 307 341 387 421 301 266 242 257 239 288 528 628 527 692 437 524 588 583 434 374 96 234 81 75 75 102 207 1187 1391 830 281 1104 1236 1365 1676 1395 1221 204 779 758 7 6 0 975 591 813 40 39 21 165 0 0 0 0 0 0 0 0 0 0 0 0 0 0 0 0 52 41 29 55 44 34 43 115 281 375 449 468 342 249 334 664 923 830 1368 1334 120 999 874 976 316 165 430 1504 893 933 405 144 402 349 698 959 1018 397 809 1540 1370 1259 944 650 434 482 133 355 0 0 88 31 0 0 191 656 293 0 0 0 0 6 0 0 106 259 0 37 19 0 0 0 67 159 524 0 0 0 0 0 0 0 0 0 0 0 0 0 0 0 0 0 2 0 0 0 0 0 3 6 7 4 9 82 259 320 109 110 0 6 7 7 10 30 8 61 194 282 322 290 263 316 357 345 341 323 316 224 373
259 244 297 275 237 218 225 266 279 304 300 306 307 283 219 214 210 293 279 290 378 223 187 137 103 75 75 75 128 793 940 1086 216 878 1185 1632 829 983 1358 868 732 582 430 265 6 61 84 4 4 74 75 271 23 0 0 0 0 0 0 0 0 0 0 0 0 0 0 0 0 0 0 85 58 62 47 34 34 34 34 108 327 467 579 606 442 372 346 516 975 879 916 628 1218 578 1492 1077 361 177 439 667 914 577 232 1156 1520 1093 684 479 1086 1329 1270 1389 1400 810 694 466 556 0 0 186 0 0 0 0 274 724 486 0 0 0 0 63 0 0 0 33 70 519 293 0 0 0 0 1 322 0 0 0 0 0 0 0 0 0 0 0 0 0 0 0 0 0 0 0 0 0 0 0 0 0 0 0 0 3 7 311 305 18 45 342 168 128 7 14 36 148 88 212 256 253 234 231 220 254 236 140 77 380 406 105
299 219 283 397 184 166 169 166 180 186 394 530 501 583 333 218 180 131 91 90 99 143 151 98 75 75 75 472 774 314 579 1140 1375 465 340 546 634 1435 1208 1423 1182 457 44 843 788 810 512 486 4 1 1 2 1 0 0 0 0 0 0 0 0 0 0 0 0 0 0 0 0 0 92 93 79 97 49 37 34 34 34 34 54 235 507 622 775 880 973 549 1316 1243 975 865 1094 1369 808 1148 1253 577 240 1012 961 327 222 219 1120 1204 361 957 1108 1039 1348 1400 1160 912 901 785 910 0 0 246 0 65 0 0 0 0 322 0 0 0 0 0 0 0 20 354 504 57 0 0 0 0 0 0 0 0 0 0 0 0 0 0 0 0 0 0 0 0 0 0 0 0 0 0 0 0 0 0 0 0 0 0 0 0 19 298 64 87 229 392 182 6 11 11 230 191 130 116 99 92 94 189 166 140 186 151 66 19 67 44
208 227 158 159 158 142 145 135 142 178 184 176 240 408 265 99 111 91 161 147 81 92 126 83 75 186 232 191 493 1164 134 350 1040 1353 1592 957 909 1665 1010 902 425 1244 123 1162 443 610 250 528 837 403 0 0 0 0 0 0 0 0 0 0 0 0 0 0 0 0 0 0 0 70 88 105 138 118 95 160 117 34 34 34 34 111 337 577 849 990 1533 1017 691 1162 1559 1003 1351 962 970 1197 982 495 436 48 311 38 495 855 753 777 526 820 698 1801 1401 1136 1031 933 793 424 797 122 499 420 125 0 31 0 0 0 259 0 0 0 0 0 0 53 423 375 0 0 0 0 0 0 0 0 0 0 0 0 0 0 0 0 0 0 0 0 0 0 0 0 0 0 0 0 0 0 0 0 0 0 0 0 0 0 0 0 0 8 19 0 3 6 7 10 15 27 42 103 16 23 56 39 76 102 35 0 58 60 45 25
222 185 151 136 133 137 202 219 188 103 108 116 132 96 114 103 159 262 314 393 122 96 75 95 291 861 693 1017 843 1009 1144 1117 147 537 1352 972 777 1016 1170 875 1099 1282 659 1126 610 1114 660 704 679 353 71 0 298 0 0 0 0 0 0 0 0 0 0 0 0 0 0 0 0 90 82 147 164 180 180 285 161 140 94 95 34 34 201 321 772 593 585 983 1291 1173 1167 1096 1105 1316 1125 1289 1140 774 646 1086 183 3 621 985 918 1113 920 246 764 1483 1333 696 897 1298 993 1008 727 0 58 360 3 80 0 71 0 0 0 0 0 0 0 0 10 251 369 0 0 0 0 0 0 0 0 0 0 0 0 0 0 0 0 0 0 0 0 0 0 0 0 0 0 0 0 0 0 0 0 0 0 0 0 0 0 0 0 0 0 0 5 0 4 6 6 9 12 15 20 19 25 27 4 3 0 5 0 0 27 33 19 14
162 132 126 128 134 258 360 144 100 136 101 106 157 114 119 156 136 190 150 94 96 75 130 465 871 746 850 755 1025 1376 806 1171 1387 315 1307 1367 946 1212 1161 1152 909 448 1404 912 804 1162 226 146 116 254 556 298 0 0 0 0 0 0 0 0 0 0 0 0 0 0 0 66 78 108 131 196 235 316 400 453 283 264 198 141 34 34 39 628 842 799 1348 1316 1744 1436 1278 1244 1201 1235 1188 1075 839 1128 585 1029 497 0 34 335 1035 693 1262 15 628 1201 638 546 1156 1073 1087 333 375 0 99 140 175 0 220 264 0 0 0 0 0 0 0 3 455 136 0 0 0 0 0 0 0 0 0 0 0 0 0 0 0 0 0 0 0 0 0 0 0 0 0 0 0 0 0 0 0 0 0 0 0 0 0 0 0 0 0 0 0 0 0 0 0 0 0 6 8 11 12 13 31 27 18 19 0 0 12 26 21 8 5 6
157 121 120 129 140 140 115 103 155 170 155 185 198 152 165 244 376 284 75 75 75 144 652 422 458 396 301 329 215 403 249 532 1158 1131 1223 1014 950 532 373 534 323 961 967 1439 1667 1227 561 445 321 51 29 813 96 0 0 0 0 0 0 0 0 0 0 0 0 0 0 67 81 124 177 236 351 525 593 606 592 365 214 232 135 34 46 65 710 686 853 1765 1280 1305 1510 1436 1339 1292 1359 1107 769 444 678 391 411 0 313 431 697 314 0 21 1071 582 999 0 779 632 377 522 359 0 173 310 521 337 0 0 42 140 0 0 0 0 219 441 653 0 0 0 0 0 0 0 0 0 0 0 0 0 0 0 0 0 0 0 0 0 0 0 0 0 0 0 0 0 0 0 0 0 0 0 0 0 0 0 0 0 0 0 0 0 0 0 0 0 0 0 5 6 99 201 19 27 11 7 0 17 0 0 0 0 0 0
139 343 127 162 187 282 348 253 255 314 247 373 556 507 460 406 574 264 116 105 213 497 311 220 197 297 294 780 794 814 770 819 437 605 445 1083 672 749 1313 1048 81 984 490 885 1747 1326 633 440 397 743 274 127 0 0 0 0 0 0 0 0 0 0 0 0 0 0 55 77 115 203 255 320 440 381 544 638 737 541 349 205 169 331 641 780 555 451 590 1068 1270 1414 1623 1579 1335 1279 1310 1244 749 289 367 643 502 0 264 676 101 0 11 406 508 395 417 396 776 712 12 444 104 0 0 0 0 121 227 16 399 0 0 0 0 148 120 52 4 0 0 0 0 0 0 0 0 0 0 0 0 0 0 0 0 0 0 0 0 0 0 0 0 0 0 0 0 0 0 0 0 0 0 0 0 0 0 0 0 0 0 0 0 0 0 0 0 0 0 0 0 70 110 11 0 0 0 0 0 0 0 0 0 0 0 0
347 269 174 230 267 576 589 311 370 533 343 540 836 432 465 471 432 152 74 116 390 263 197 279 723 1133 300 487 364 659 1020 1325 834 1181 882 1310 220 559 837 912 469 727 507 774 1305 1278 435 496 287 660 174 0 0 0 0 0 0 0 0 0 0 0 0 0 0 0 86 71 98 230 313 266 350 412 647 847 637 494 384 162 82 176 896 990 1047 799 608 785 926 1137 1444 1374 1307 1212 1012 943 811 310 91 261 658 0 0 417 0 0 292 460 15 685 24 152 228 743 259 226 111 0 0 0 0 18 0 195 281 0 0 5 102 381 444 485 0 0 0 0 0 0 0 0 0 0 0 0 0 0 0 0 0 0 0 0 0 0 0 0 0 0 0 0 0 0 0 0 0 0 0 0 0 0 0 0 0 0 0 0 0 0 0 11 30 0 0 0 0 0 0 0 0 0 0 0 0 0 0 0 0 0 0 0
170 166 174 205 250 375 423 337 324 324 341 426 555 432 469 414 153 95 94 102 272 220 334 694 821 974 313 475 960 904 578 988 650 964 813 303 1228 906 834 412 807 28 605 744 921 347 804 660 553 31 10 0 0 0 0 0 0 0 0 0 0 0 0 0 0 58 86 134 213 282 352 534 550 349 432 622 596 628 344 173 315 545 195 956 1528 1481 1219 930 942 1042 1119 1219 1342 1482 1283 718 0 242 151 6 659 0 170 518 0 0 0 0 0 123 58 0 0 530 0 0 0 0 0 0 341 0 31 0 0 0 0 101 256 77 40 0 0 0 0 0 0 0 0 0 0 0 0 0 0 0 0 0 0 0 0 0 0 0 0 0 0 0 0 0 0 0 0 0 0 0 0 0 0 0 0 0 0 0 0 0 0 0 208 0 0 0 0 0 0 0 0 0 0 0 0 0 0 0 0 0 0 0 0 0
167 169 160 199 344 277 298 516 445 576 365 316 219 235 226 209 127 68 113 160 507 305 246 468 343 192 410 427 738 1069 480 1017 742 555 219 686 842 928 264 708 518 387 6 211 494 556 533 51 18 0 0 0 0 0 0 0 0 0 0 0 0 0 0 0 0 56 152 181 271 340 435 441 576 433 432 393 385 332 57 22 290 686 1152 1186 860 1256 1250 1180 1155 1289 1256 972 897 937 617 2 0 44 179 0 0 0 0 357 0 0 0 0 0 0 0 0 0 0 0 0 0 0 0 0 0 0 0 0 0 0 237 164 554 22 96 0 0 0 0 0 0 0 0 0 0 0 0 0 0 0 0 0 0 0 0 0 0 0 0 0 0 0 0 0 0 0 0 0 0 0 0 0 0 0 0 0 0 0 0 0 0 358 0 0 0 0 0 0 0 0 0 0 0 0 0 0 0 0 0 0 0 0 0 0
234 224 203 181 213 220 259 703 322 571 397 437 269 278 336 449 126 108 145 442 902 382 128 108 132 205 435 746 915 260 942 899 202 73 95 856 651 568 344 865 838 562 5 1 0 0 0 0 0 0 0 0 0 0 0 0 0 0 0 0 0 0 0 0 45 81 117 204 327 432 537 414 549 539 589 427 328 224 8 326 369 511 1220 1274 1693 1113 1198 1548 1223 1510 1304 739 1360 729 0 237 0 19 0 0 0 98 0 0 0 0 0 0 0 0 0 0 0 0 0 0 0 0 0 0 0 0 0 0 2 290 142 461 74 5 59 0 0 0 0 0 0 0 0 0 0 0 0 0 0 0 0 0 0 0 0 0 0 0 0 0 0 0 0 0 0 0 0 0 0 0 0 0 0 0 0 0 0 0 0 0 117 0 0 0 0 0 0 0 0 0 0 0 0 0 0 0 0 0 0 0 0 0 0 0
333 301 302 197 206 214 231 520 246 258 276 276 268 275 274 371 92 105 130 190 233 123 61 44 34 22 162 157 45 484 758 157 43 49 227 276 310 735 900 377 32 19 447 116 89 166 0 0 0 0 0 0 0 0 0 0 0 0 0 0 0 0 0 0 54 78 136 239 332 449 326 345 465 472 444 332 31 5 6 549 898 1311 187 678 594 964 1465 1223 1227 1188 844 0 97 1201 1151 0 0 283 0 0 0 0 0 0 0 0 0 0 0 0 0 0 0 0 0 0 0 0 0 0 0 0 0 0 1 47 314 340 0 0 0 0 0 0 0 0 0 0 0 0 0 0 0 0 0 0 0 0 0 0 0 0 0 0 0 0 0 0 0 0 0 0 0 0 0 0 0 0 0 0 0 0 0 0 0 412 0 0 0 0 0 0 0 0 0 0 0 0 0 0 0 0 0 0 0 0 0 0 0 0
283 307 226 214 214 220 250 313 299 342 352 214 179 171 98 71 60 44 34 38 11 19 20 11 11 11 11 22 12 56 11 11 126 25 579 689 1001 786 29 11 653 241 140 137 235 437 0 0 0 0 0 0 0 0 0 0 0 0 0 0 0 0 0 8 39 91 162 338 409 220 483 529 449 439 194 0 0 41 313 462 758 1384 1172 895 732 1377 1385 1723 362 1215 1076 0 0 5 743 203 0 0 0 0 0 0 0 0 0 0 0 0 0 0 0 0 0 0 0 0 0 0 0 0 0 0 0 0 44 40 0 0 0 0 0 0 0 0 0 0 0 0 0 0 0 0 0 0 0 0 0 0 0 0 0 0 0 0 0 0 0 0 0 0 0 0 0 0 0 0 0 0 0 0 0 0 0 0 0 0 0 0 0 0 0 0 0 0 0 0 0 0 0 0 0 0 0 0 0 0 0 0 0 0
210 210 219 195 109 123 142 186 460 141 132 106 80 77 58 62 11 14 11 11 11 11 11 11 11 11 22 11 24 11 11 11 55 85 497 680 838 455 80 0 0 468 83 56 553 47 0 0 0 0 0 0 0 0 0 0 0 0 0 0 0 0 0 0 58 78 235 184 288 298 211 237 338 135 0 0 67 248 468 873 349 501 992 1362 667 1021 1093 1483 78 951 268 588 357 0 0 339 0 0 0 111 0 0 0 0 0 0 0 0 0 0 0 0 0 0 0 0 0 0 0 0 0 0 0 0 0 0 0 0 0 0 0 0 0 0 0 0 0 0 0 0 0 0 0 0 0 0 0 0 0 0 0 0 0 0 0 0 0 0 0 0 0 0 0 0 0 0 0 0 0 0 0 0 0 0 0 0 0 0 0 0 0 0 0 0 0 0 0 0 0 0 0 0 0 0 0 0 0 0 0 0
192 215 264 129 102 107 67 68 56 82 71 61 62 61 45 43 28 11 11 11 11 11 11 11 11 11 11 11 11 11 644 551 481 527 403 286 484 526 217 0 85 35 663 276 343 0 0 0 0 0 0 0 0 0 0 0 0 0 0 0 0 0 0 0 0 80 190 260 374 413 171 35 0 0 0 82 391 257 789 1165 1253 471 1618 958 1111 940 1049 629 91 913 317 637 174 0 0 0 0 0 0 0 0 0 0 0 0 0 0 0 0 0 0 0 0 0 0 0 0 0 0 0 0 0 0 0 0 0 0 0 0 0 0 0 0 0 0 0 0 0 0 0 0 0 0 0 0 0 0 0 0 0 0 0 0 0 0 0 0 0 0 0 0 0 0 0 0 0 0 0 0 0 0 0 0 0 0 0 0 0 0 0 0 0 0 0 0 0 0 0 0 0 0 0 0 0 0 0 0 0 0 0
142 114 78 88 51 47 47 42 54 50 51 41 15 13 13 11 11 11 11 11 11 11 11 36 504 85 47 233 474 401 353 178 557 486 457 859 0 612 554 0 592 0 619 0 0 0 0 0 0 0 0 0 0 0 0 0 0 0 0 0 0 0 0 0 0 0 0 235 92 8 0 0 0 0 5 578 672 735 1036 1250 1020 745 594 1001 787 954 745 0 66 803 90 172 0 0 0 0 0 59 0 0 0 0 0 0 0 0 0 0 0 0 0 0 0 0 0 0 0 0 0 0 0 0 0 0 0 0 0 0 0 0 0 0 0 0 0 0 0 0 0 0 0 0 0 0 0 0 0 0 0 0 0 0 0 0 0 0 0 0 0 0 0 0 0 0 0 0 0 0 0 0 0 0 0 0 0 0 0 0 0 0 0 0 0 0 0 0 0 0 0 0 0 0 0 0 0 0 0 0 0 0
90 61 69 61 24 13 13 13 13 13 13 13 13 13 13 11 11 11 11 11 11 15 68 364 380 472 728 422 278 222 378 300 381 618 558 66 372 0 0 0 0 0 0 0 0 0 0 0 0 0 0 0 0 0 0 0 0 0 0 0 0 0 0 0 0 0 0 0 0 0 0 0 0 0 62 88 555 1037 1091 1322 985 103 825 77 26 791 630 0 728 330 481 0 0 0 0 0 0 0 0 0 0 0 0 0 0 0 0 0 0 0 0 0 0 0 0 0 0 0 0 0 0 0 0 0 0 0 0 0 0 0 0 0 0 0 0 0 0 0 0 0 0 0 0 0 0 0 0 0 0 0 0 0 0 0 0 0 0 0 0 0 0 0 0 0 0 0 0 0 0 0 0 0 0 0 0 0 0 0 0 0 0 0 0 0 0 0 0 0 0 0 0 0 0 0 0 0 0 0 0 0
48 54 51 14 13 13 13 13 13 13 13 13 13 13 13 11 11 11 11 18 11 36 99 144 195 322 299 183 295 346 102 189 493 6 320 430 65 0 0 0 0 0 0 0 0 0 0 0 0 0 0 0 0 0 0 0 0 0 0 0 0 0 0 0 0 0 0 0 0 0 0 0 0 289 544 217 1011 695 1026 1349 1259 141 463 0 207 177 0 230 358 377 29 0 0 0 0 0 0 0 0 0 0 0 0 0 0 0 0 0 0 0 0 0 0 0 0 0 0 0 0 0 0 0 0 0 0 0 0 0 0 0 0 0 0 0 0 0 0 0 0 0 0 0 0 0 0 0 0 0 0 0 0 0 0 0 0 0 0 0 0 0 0 0 0 0 0 0 0 0 0 0 0 0 0 0 0 0 0 0 0 0 0 0 0 0 0 0 0 0 0 0 0 0 0 0 0 0 0 0 0 0
32 43 13 13 13 13 13 13 13 13 13 13 13 13 13 11 11 11 11 11 11 11 19 26 109 63 132 315 391 60 175 510 105 272 0 0 0 0 0 0 0 0 0 0 0 0 0 0 0 0 0 0 0 0 0 0 0 0 0 0 0 0 0 0 0 0 0 0 0 0 174 32 216 206 250 995 1077 1029 1100 1214 455 844 0 55 279 325 0 268 393 0 0 0 0 0 0 0 0 0 0 0 0 0 0 0 0 0 0 0 0 0 0 0 0 0 0 0 0 0 0 0 0 0 0 0 0 0 0 0 0 0 0 0 0 0 0 0 0 0 0 0 0 0 0 0 0 0 0 0 0 0 0 0 0 0 0 0 0 0 0 0 0 0 0 0 0 0 0 0 0 0 0 0 0 0 0 0 0 0 0 0 0 0 0 0 0 0 0 0 0 0 0 0 0 0 0 0 0 0 0 0
